-0.649511 1.819013 0.237158 74 74 74
-0.566736 1.587196 -0.206934 25 25 25
-0.652974 1.828714 0.307550 75 75 75
-0.572840 1.604289 -0.149036 20 20 20
-0.672734 1.884053 0.388869 73 73 73
-0.589015 1.649591 -0.091797 39 39 39
-0.686765 1.923346 0.471497 66 66 66
-0.591751 1.657253 -0.030716 25 25 25
-0.700951 1.963078 0.558531 72 72 72
-0.536595 1.502782 -0.427569 45 45 45
-0.613270 1.717517 0.031833 32 32 32
-0.549805 1.539778 -0.377468 29 29 29
-0.628641 1.760567 0.097973 100 100 100
-0.549278 1.538304 -0.317506 23 23 23
-0.636488 1.782543 0.165596 92 92 92
-0.559313 1.566406 -0.263436 24 24 24
-0.649511 1.819013 0.237158 74 74 74
-0.568071 1.590935 -0.207422 25 25 25
-0.658953 1.845457 0.310366 79 79 79
-0.574180 1.608042 -0.149385 21 21 21
-0.671414 1.880355 0.388105 73 73 73
-0.593717 1.662758 -0.092530 36 36 36
-0.689386 1.930687 0.473297 64 64 64
-0.597131 1.672319 -0.030995 27 27 27
-0.702251 1.966716 0.559567 69 69 69
-0.528001 1.511963 -0.429122 53 53 53
-0.605220 1.733083 0.032043 32 32 32
-0.540327 1.547258 -0.378368 35 35 35
-0.617652 1.768684 0.098182 100 100 100
-0.541115 1.549515 -0.319033 22 22 22
-0.629284 1.801991 0.166990 92 92 92
-0.552271 1.581462 -0.265313 24 24 24
-0.638105 1.827251 0.237645 76 76 76
-0.559569 1.602359 -0.208397 24 24 24
-0.649961 1.861202 0.312243 79 79 79
-0.565567 1.619535 -0.150082 21 21 21
-0.660859 1.892410 0.389632 74 74 74
-0.576168 1.649892 -0.091588 37 37 37
-0.682315 1.953851 0.477796 68 68 68
-0.586760 1.680223 -0.031065 24 24 24
-0.689777 1.975219 0.560602 72 72 72
-0.528638 1.513787 -0.429640 48 48 48
-0.608516 1.742523 0.032217 34 34 34
-0.536472 1.536220 -0.375668 40 40 40
-0.616335 1.764913 0.097973 100 100 100
-0.548235 1.569903 -0.323230 24 24 24
-0.631911 1.809515 0.167688 96 96 96
-0.552271 1.581462 -0.265313 23 23 23
-0.638105 1.827251 0.237645 73 73 73
-0.554333 1.587366 -0.206447 27 27 27
-0.653217 1.870526 0.313808 73 73 73
-0.570822 1.634583 -0.151477 21 21 21
-0.662154 1.896117 0.390395 71 71 71
-0.580777 1.663091 -0.092321 34 34 34
-0.679745 1.946492 0.475996 66 66 66
-0.592034 1.695326 -0.031345 24 24 24
-0.693599 1.986162 0.563708 67 67 67
-0.521444 1.526491 -0.432228 38 38 38
-0.597288 1.748517 0.032252 30 30 30
-0.530413 1.552745 -0.378818 32 32 32
-0.605599 1.772847 0.098182 100 100 100
-0.534998 1.566167 -0.321704 27 27 27
-0.620868 1.817545 0.168036 89 89 89
-0.544048 1.592662 -0.266564 22 22 22
-0.629502 1.842823 0.239108 74 74 74
-0.546082 1.598616 -0.207422 27 27 27
-0.637915 1.867452 0.312556 72 72 72
-0.560971 1.642201 -0.151825 22 22 22
-0.658117 1.926590 0.395738 73 73 73
-0.569444 1.667005 -0.092321 33 33 33
-0.667740 1.954762 0.476896 68 68 68
-0.577895 1.691747 -0.031205 24 24 24
-0.683810 2.001806 0.566814 69 69 69
-0.518946 1.519179 -0.430157 39 39 39
-0.601166 1.759871 0.032461 37 37 37
-0.533562 1.561965 -0.381067 30 30 30
-0.609473 1.784187 0.098810 100 100 100
-0.534363 1.564309 -0.321322 35 35 35
-0.619579 1.813775 0.167688 89 89 89
-0.552988 1.618832 -0.270944 29 29 29
-0.636561 1.863487 0.241789 79 79 79
-0.551857 1.615523 -0.209615 23 23 23
-0.640470 1.874929 0.313808 75 75 75
-0.559683 1.638430 -0.151477 22 22 22
-0.659386 1.930306 0.396501 73 73 73
-0.575900 1.685906 -0.093367 30 30 30
-0.671520 1.965826 0.479596 68 68 68
-0.579188 1.695532 -0.031275 24 24 24
-0.683810 2.001806 0.566814 67 67 67
-0.509551 1.526429 -0.431193 39 39 39
-0.591398 1.771612 0.032601 59 59 59
-0.522645 1.565652 -0.381067 29 29 29
-0.599531 1.795977 0.099229 100 100 100
-0.526537 1.577313 -0.323230 31 31 31
-0.609425 1.825615 0.168385 96 96 96
-0.540422 1.618906 -0.270319 33 33 33
-0.622908 1.866003 0.241545 76 76 76
-0.545594 1.634400 -0.211565 20 20 20
-0.629867 1.886850 0.315059 72 72 72
-0.549492 1.646078 -0.151825 21 21 21
-0.645894 1.934862 0.396501 73 73 73
-0.566013 1.695569 -0.093681 28 28 28
-0.662099 1.983406 0.482745 71 71 71
-0.573669 1.718502 -0.031624 24 24 24
-0.672265 2.013860 0.568884 70 70 70
-0.511998 1.533759 -0.433263 36 36 36
-0.592665 1.775406 0.032671 80 80 80
-0.522028 1.563804 -0.380617 28 28 28
-0.604591 1.811132 0.100066 100 100 100
-0.530267 1.588486 -0.325520 29 29 29
-0.613211 1.836955 0.169431 85 85 85
-0.539171 1.615158 -0.269693 35 35 35
-0.621650 1.862237 0.241058 74 74 74
-0.548737 1.643815 -0.212784 9 9 9
-0.636122 1.905587 0.318188 70 70 70
-0.552016 1.653637 -0.152523 23 23 23
-0.647137 1.938587 0.397264 65 65 65
-0.562851 1.686096 -0.093158 31 31 31
-0.662099 1.983406 0.482745 69 69 69
-0.579368 1.735573 -0.031938 28 28 28
-0.673489 2.017525 0.569920 69 69 69
-0.504872 1.548316 -0.436369 40 40 40
-0.581495 1.783302 0.032741 86 86 86
-0.511702 1.569263 -0.381067 30 30 30
-0.588217 1.803916 0.099438 100 100 100
-0.521599 1.599616 -0.327047 27 27 27
-0.603460 1.850662 0.170302 82 82 82
-0.528494 1.620761 -0.270006 28 28 28
-0.609865 1.870306 0.241545 73 73 73
-0.532324 1.632507 -0.210834 12 12 12
-0.622803 1.909982 0.318188 69 69 69
-0.546635 1.676393 -0.154266 21 21 21
-0.637240 1.954256 0.399554 64 64 64
-0.554162 1.699479 -0.093681 28 28 28
-0.650049 1.993538 0.484095 66 66 66
-0.568477 1.743378 -0.032008 32 32 32
-0.664179 2.036871 0.574061 74 74 74
-0.507866 1.557500 -0.438957 43 43 43
-0.587075 1.800413 0.033055 89 89 89
-0.515931 1.582232 -0.384216 32 32 32
-0.589455 1.807714 0.099648 100 100 100
-0.517947 1.588417 -0.324757 26 26 26
-0.605313 1.856345 0.170825 89 89 89
-0.534618 1.639542 -0.273135 28 28 28
-0.612327 1.877855 0.242520 73 73 73
-0.533555 1.636282 -0.211321 28 28 28
-0.622803 1.909982 0.318188 67 67 67
-0.550341 1.687758 -0.155312 24 24 24
-0.640892 1.965456 0.401844 64 64 64
-0.556639 1.707074 -0.094100 27 27 27
-0.651257 1.997243 0.484994 68 68 68
-0.567237 1.739575 -0.031938 39 39 39
-0.665376 2.040545 0.575096 70 70 70
-0.496980 1.561007 -0.438957 77 77 77
-0.573885 1.802562 0.033020 84 84 84
-0.508419 1.596936 -0.386916 32 32 32
-0.580456 1.823204 0.100276 100 100 100
-0.508037 1.595735 -0.325520 25 25 25
-0.592338 1.860525 0.170825 85 85 85
-0.524358 1.646999 -0.273760 28 28 28
-0.606429 1.904783 0.245445 73 73 73
-0.526937 1.655099 -0.213271 29 29 29
-0.611850 1.921812 0.319439 69 69 69
-0.536127 1.683965 -0.154614 32 32 32
-0.630132 1.979236 0.403752 60 60 60
-0.551979 1.733756 -0.095356 28 28 28
-0.643210 2.020310 0.489493 68 68 68
-0.553865 1.739682 -0.031868 35 35 35
-0.651115 2.045140 0.575096 74 74 74
-0.498153 1.564689 -0.439992 100 100 100
-0.573278 1.800657 0.032985 89 89 89
-0.514331 1.615505 -0.391415 70 70 70
-0.581668 1.827010 0.100485 90 90 90
-0.511610 1.606960 -0.327810 27 27 27
-0.593547 1.864322 0.171174 85 85 85
-0.520762 1.635705 -0.271883 29 29 29
-0.606429 1.904783 0.245445 73 73 73
-0.531754 1.670231 -0.215221 29 29 29
-0.614248 1.929341 0.320691 69 69 69
-0.538544 1.691559 -0.155312 24 24 24
-0.630728 1.981106 0.404133 66 66 66
-0.555614 1.745175 -0.095984 32 32 32
-0.644983 2.025881 0.490843 62 62 62
-0.558719 1.754926 -0.032147 29 29 29
-0.652287 2.048822 0.576131 72 72 72
-0.488912 1.571647 -0.441028 100 100 100
-0.563105 1.810147 0.033090 86 86 86
-0.502448 1.615160 -0.390515 94 94 94
-0.576064 1.851806 0.101636 95 95 95
-0.507356 1.630939 -0.332008 39 39 39
-0.582945 1.873925 0.171697 82 82 82
-0.513423 1.650440 -0.273760 30 30 30
-0.594962 1.912554 0.245932 73 73 73
-0.521845 1.677512 -0.215709 30 30 30
-0.604959 1.944690 0.322568 69 69 69
-0.529681 1.702703 -0.156009 24 24 24
-0.618741 1.988995 0.404897 64 64 64
-0.540468 1.737379 -0.095356 42 42 42
-0.634427 2.039418 0.493093 68 68 68
-0.550631 1.770049 -0.032357 25 25 25
-0.643275 2.067860 0.580272 70 70 70
-0.492355 1.582715 -0.444133 100 100 100
-0.567857 1.825423 0.033369 81 81 81
-0.502448 1.615160 -0.390515 93 93 93
-0.573691 1.844177 0.101218 95 95 95
-0.512022 1.645936 -0.335061 89 89 89
-0.588863 1.892950 0.173440 75 75 75
-0.516944 1.661757 -0.275638 29 29 29
-0.596141 1.916345 0.246420 72 72 72
-0.520665 1.673721 -0.215221 30 30 30
-0.608479 1.956007 0.324445 72 72 72
-0.532640 1.712216 -0.156880 25 25 25
-0.620491 1.994619 0.406042 60 60 60
-0.543434 1.746914 -0.095879 33 33 33
-0.634427 2.039418 0.493093 68 68 68
-0.551225 1.771959 -0.032392 23 23 23
-0.646718 2.078928 0.583378 69 69 69
-0.482416 1.589811 -0.445169 100 100 100
-0.556261 1.833170 0.033439 83 83 83
-0.493989 1.627952 -0.392765 91 91 91
-0.563122 1.855782 0.101636 92 92 92
-0.496528 1.636319 -0.332389 89 89 89
-0.577948 1.904641 0.174137 79 79 79
-0.512213 1.688009 -0.279392 50 50 50
-0.586207 1.931857 0.247882 76 76 76
-0.511850 1.686813 -0.216440 31 31 31
-0.592515 1.952646 0.323194 67 67 67
-0.524145 1.727332 -0.157926 27 27 27
-0.611681 2.015810 0.409476 64 64 64
-0.533545 1.758311 -0.096298 28 28 28
-0.621306 2.047527 0.493993 66 66 66
-0.535357 1.764283 -0.032182 24 24 24
-0.635554 2.094484 0.586484 70 70 70
-0.480172 1.582417 -0.443098 100 100 100
-0.558583 1.840824 0.033578 81 81 81
-0.497384 1.639140 -0.395464 84 84 84
-0.565442 1.863427 0.102055 88 88 88
-0.497668 1.640077 -0.333153 89 89 89
-0.576791 1.900828 0.173789 82 82 82
-0.513360 1.691789 -0.280018 82 82 82
-0.589665 1.943255 0.249345 72 72 72
-0.515308 1.698211 -0.217902 39 39 39
-0.594809 1.960207 0.324445 70 70 70
-0.522409 1.721612 -0.157403 28 28 28
-0.614532 2.025204 0.411384 60 60 60
-0.536445 1.767867 -0.096822 31 31 31
-0.625267 2.060580 0.497142 62 62 62
-0.540003 1.779591 -0.032461 23 23 23
-0.634432 2.090787 0.585449 70 70 70
-0.471305 1.593140 -0.445169 100 100 100
-0.544584 1.840844 0.033509 83 83 83
-0.485929 1.642573 -0.395464 91 91 91
-0.555819 1.878820 0.102683 79 79 79
-0.490105 1.656689 -0.335824 93 93 93
-0.563507 1.904808 0.173789 79 79 79
-0.500416 1.691544 -0.279392 89 89 89
-0.579463 1.958745 0.250807 71 71 71
-0.509072 1.720802 -0.220340 66 66 66
-0.584472 1.975678 0.326322 67 67 67
-0.511508 1.729038 -0.157752 28 28 28
-0.599264 2.025679 0.410621 62 62 62
-0.526356 1.779229 -0.097240 31 31 31
-0.616947 2.085451 0.502091 66 66 66
-0.532104 1.798658 -0.032741 22 22 22
-0.623109 2.106280 0.588555 76 76 76
-0.475689 1.607960 -0.449310 100 100 100
-0.544584 1.840844 0.033509 81 81 81
-0.484823 1.638835 -0.394564 91 91 91
-0.558085 1.886481 0.103102 77 77 77
-0.491776 1.662337 -0.336969 88 88 88
-0.566898 1.916271 0.174834 72 72 72
-0.500976 1.693438 -0.279705 85 85 85
-0.579463 1.958745 0.250807 69 69 69
-0.510761 1.726513 -0.221071 81 81 81
-0.586714 1.983254 0.327574 66 66 66
-0.517160 1.748144 -0.159495 47 47 47
-0.600378 2.029444 0.411384 62 62 62
-0.526356 1.779229 -0.097240 32 32 32
-0.616947 2.085451 0.502091 64 64 64
-0.534373 1.806328 -0.032880 21 21 21
-0.624205 2.109985 0.589590 72 72 72
-0.465804 1.614873 -0.450345 100 100 100
-0.535366 1.856036 0.033718 81 81 81
-0.474737 1.645842 -0.395464 88 88 88
-0.544124 1.886398 0.102892 79 79 79
-0.482626 1.673191 -0.338495 88 88 88
-0.556602 1.929657 0.175706 69 69 69
-0.492723 1.708197 -0.281582 85 85 85
-0.565017 1.958829 0.250320 71 71 71
-0.497347 1.724228 -0.220340 92 92 92
-0.581960 2.017570 0.332580 82 82 82
-0.506353 1.755452 -0.159844 76 76 76
-0.589815 2.044802 0.413674 62 62 62
-0.516447 1.790447 -0.097659 37 37 37
-0.601657 2.085857 0.501191 68 68 68
-0.524282 1.817609 -0.033020 21 21 21
-0.616253 2.136459 0.595801 72 72 72
-0.467946 1.622298 -0.452416 100 100 100
-0.539800 1.871407 0.033997 79 79 79
-0.476897 1.653332 -0.397264 88 88 88
-0.545231 1.890236 0.103102 77 77 77
-0.480449 1.665646 -0.336969 86 86 86
-0.559363 1.939229 0.176578 72 72 72
-0.492723 1.708197 -0.281582 82 82 82
-0.568318 1.970273 0.251782 72 72 72
-0.498447 1.728042 -0.220827 88 88 88
-0.576486 1.998590 0.329451 67 67 67
-0.510219 1.768853 -0.161064 82 82 82
-0.594712 2.061779 0.417108 66 66 66
-0.521983 1.809637 -0.098706 71 71 71
-0.603818 2.093347 0.502991 66 66 66
-0.524282 1.817609 -0.033020 23 23 23
-0.618395 2.143884 0.597872 70 70 70
-0.454519 1.618086 -0.450345 100 100 100
-0.528885 1.882831 0.034137 74 74 74
-0.467451 1.664126 -0.399063 84 84 84
-0.536343 1.909379 0.103939 74 74 74
-0.471995 1.680300 -0.339258 90 90 90
-0.545811 1.943087 0.176578 82 82 82
-0.483991 1.723006 -0.283459 80 80 80
-0.559917 1.993304 0.254219 71 71 71
-0.487445 1.735302 -0.221315 88 88 88
-0.561450 1.998762 0.328825 72 72 72
-0.496780 1.768535 -0.160715 82 82 82
-0.582428 2.073441 0.418635 66 66 66
-0.511497 1.820929 -0.099124 90 90 90
-0.595513 2.120025 0.508389 64 64 64
-0.514284 1.830851 -0.033194 60 60 60
-0.604458 2.151868 0.598907 70 70 70
-0.456608 1.625525 -0.452416 100 100 100
-0.527804 1.878980 0.034067 79 79 79
-0.470086 1.673506 -0.401313 76 76 76
-0.539583 1.920916 0.104567 77 77 77
-0.474118 1.687861 -0.340785 88 88 88
-0.546889 1.946923 0.176926 72 72 72
-0.482922 1.719202 -0.282834 82 82 82
-0.562064 2.000949 0.255194 68 68 68
-0.491739 1.750591 -0.223265 91 91 91
-0.566792 2.017780 0.331954 70 70 70
-0.497857 1.772371 -0.161064 82 82 82
-0.582428 2.073441 0.418635 64 64 64
-0.512037 1.822851 -0.099229 100 100 100
-0.599202 2.133158 0.511539 61 61 61
-0.517529 1.842402 -0.033404 82 82 82
-0.607592 2.163027 0.602013 72 72 72
-0.447287 1.636127 -0.454486 100 100 100
-0.514673 1.882619 0.034067 77 77 77
-0.456850 1.671108 -0.399963 84 84 84
-0.529320 1.936196 0.105195 77 77 77
-0.465430 1.702492 -0.343075 95 95 95
-0.536436 1.962225 0.177972 79 79 79
-0.471950 1.726342 -0.283459 80 80 80
-0.548082 2.004824 0.255194 69 69 69
-0.481600 1.761641 -0.224240 88 88 88
-0.554776 2.029310 0.333205 70 70 70
-0.488624 1.787335 -0.162110 77 77 77
-0.568456 2.079351 0.419017 62 62 62
-0.497192 1.818675 -0.098810 100 100 100
-0.585323 2.141048 0.512439 59 59 59
-0.506763 1.853685 -0.033544 80 80 80
-0.595533 2.178397 0.605119 72 72 72
-0.450344 1.647308 -0.457592 100 100 100
-0.517837 1.894193 0.034277 72 72 72
-0.458905 1.678627 -0.401763 80 80 80
-0.528267 1.932343 0.104986 77 77 77
-0.466465 1.706280 -0.343838 90 90 90
-0.539588 1.973756 0.179018 79 79 79
-0.474034 1.733964 -0.284711 80 80 80
-0.550176 2.012483 0.256169 68 68 68
-0.477412 1.746322 -0.222290 91 91 91
-0.557901 2.040742 0.335083 70 70 70
-0.490726 1.795023 -0.162807 77 77 77
-0.572080 2.092607 0.421688 64 64 64
-0.500352 1.830235 -0.099438 94 94 94
-0.585323 2.141048 0.512439 59 59 59
-0.509927 1.865259 -0.033753 82 82 82
-0.598590 2.189578 0.608225 67 67 67
-0.442101 1.661537 -0.460698 100 100 100
-0.509045 1.913133 0.034556 79 79 79
-0.449473 1.689245 -0.403562 84 84 84
-0.515101 1.935894 0.104986 79 79 79
-0.453831 1.705621 -0.343075 83 83 83
-0.528190 1.985085 0.179715 79 79 79
-0.465268 1.748604 -0.286588 80 80 80
-0.538506 2.023855 0.257144 67 67 67
-0.468577 1.761041 -0.223752 91 91 91
-0.542982 2.040675 0.334457 67 67 67
-0.481570 1.809874 -0.163853 77 77 77
-0.559337 2.102144 0.422833 62 62 62
-0.489937 1.841319 -0.099857 97 97 97
-0.572740 2.152516 0.514238 59 59 59
-0.497219 1.868687 -0.033753 80 80 80
-0.586653 2.204803 0.611331 63 63 63
-0.439120 1.650335 -0.457592 100 100 100
-0.510074 1.916998 0.034626 81 81 81
-0.450976 1.694894 -0.404912 76 76 76
-0.519210 1.951335 0.105823 82 82 82
-0.454840 1.709415 -0.343838 88 88 88
-0.527166 1.981234 0.179367 79 79 79
-0.467299 1.756240 -0.287839 77 77 77
-0.541058 2.033446 0.258363 69 69 69
-0.472660 1.776388 -0.225702 93 93 93
-0.546029 2.052129 0.336334 64 64 64
-0.480546 1.806023 -0.163504 77 77 77
-0.563881 2.119219 0.426267 64 64 64
-0.491991 1.849039 -0.100276 92 92 92
-0.575246 2.161932 0.516488 55 55 55
-0.498247 1.872552 -0.033823 77 77 77
-0.586653 2.204803 0.611331 65 65 65
-0.428266 1.657176 -0.458627 100 100 100
-0.496343 1.920599 0.034626 77 77 77
-0.439324 1.699965 -0.405362 84 84 84
-0.508232 1.966602 0.106451 79 79 79
-0.444561 1.720229 -0.345364 88 88 88
-0.515966 1.996530 0.180412 79 79 79
-0.453732 1.755714 -0.287214 80 80 80
-0.529474 2.048798 0.259825 69 69 69
-0.463910 1.795101 -0.227652 88 88 88
-0.538250 2.082759 0.340714 69 69 69
-0.467610 1.809415 -0.163504 77 77 77
-0.546245 2.113696 0.424359 60 60 60
-0.481746 1.864115 -0.100904 92 92 92
-0.562198 2.175427 0.518737 54 54 54
-0.486836 1.883813 -0.033962 80 80 80
-0.573761 2.220167 0.614436 66 66 66
-0.430200 1.664658 -0.460698 96 96 96
-0.498344 1.928343 0.034765 81 81 81
-0.439324 1.699965 -0.405362 84 84 84
-0.511230 1.978205 0.107079 82 82 82
-0.447509 1.731634 -0.347654 86 86 86
-0.517960 2.004246 0.181110 79 79 79
-0.454720 1.759539 -0.287839 77 77 77
-0.527487 2.041110 0.258850 63 63 63
-0.464904 1.798944 -0.228139 86 86 86
-0.542204 2.098059 0.343217 66 66 66
-0.470601 1.820989 -0.164550 77 77 77
-0.548702 2.123200 0.426267 64 64 64
-0.479747 1.856380 -0.100485 90 90 90
-0.566099 2.190521 0.522336 61 61 61
-0.489839 1.895430 -0.034172 80 80 80
-0.577628 2.235130 0.618578 62 62 62
-0.423565 1.686284 -0.465874 93 93 93
-0.488130 1.943327 0.034975 81 81 81
-0.429167 1.708586 -0.406712 76 76 76
-0.497753 1.981639 0.107079 79 79 79
-0.437625 1.742257 -0.349180 90 90 90
-0.508189 2.023184 0.182504 79 79 79
-0.445620 1.774089 -0.289717 77 77 77
-0.517450 2.060055 0.260800 65 65 65
-0.450714 1.794366 -0.227164 91 91 91
-0.529355 2.107449 0.344156 64 64 64
-0.462078 1.839609 -0.165945 75 75 75
-0.538541 2.144023 0.429702 60 60 60
-0.469046 1.867351 -0.100904 90 90 90
-0.551176 2.194323 0.522336 59 59 59
-0.477900 1.902599 -0.034242 82 82 82
-0.564754 2.248379 0.621166 65 65 65
-0.424507 1.690031 -0.466910 96 96 96
-0.490079 1.951085 0.035114 81 81 81
-0.432490 1.721816 -0.409861 88 88 88
-0.498726 1.985513 0.107289 77 77 77
-0.436668 1.738448 -0.348417 86 86 86
-0.511101 2.034778 0.183550 79 79 79
-0.448508 1.785584 -0.291594 82 82 82
-0.519385 2.067757 0.261775 69 69 69
-0.453615 1.805918 -0.228627 91 91 91
-0.530317 2.111281 0.344782 64 64 64
-0.464990 1.851203 -0.166990 77 77 77
-0.542368 2.159256 0.432755 62 62 62
-0.472939 1.882847 -0.101741 86 86 86
-0.553075 2.201883 0.524136 59 59 59
-0.478874 1.906478 -0.034311 80 80 80
-0.566166 2.254000 0.622719 65 65 65
-0.411783 1.689200 -0.465874 93 93 93
-0.479287 1.966116 0.035324 83 83 83
-0.422305 1.732367 -0.411660 88 88 88
-0.486745 1.996708 0.107707 82 82 82
-0.424521 1.741454 -0.348417 83 83 83
-0.495939 2.034425 0.183201 82 82 82
-0.437902 1.796348 -0.292845 80 80 80
-0.508698 2.086761 0.263725 67 67 67
-0.443347 1.818684 -0.229846 83 83 83
-0.516033 2.116851 0.345094 62 62 62
-0.450168 1.846662 -0.166293 75 75 75
-0.531000 2.178249 0.435808 60 60 60
-0.463567 1.901627 -0.102578 75 75 75
-0.539536 2.213264 0.525936 59 59 59
-0.467447 1.917546 -0.034451 77 77 77
-0.549501 2.254143 0.621683 66 66 66
-0.413613 1.696707 -0.467945 100 100 100
-0.478340 1.962230 0.035254 79 79 79
-0.424152 1.739940 -0.413460 91 91 91
-0.491475 2.016112 0.108754 82 82 82
-0.426381 1.749084 -0.349944 86 86 86
-0.497827 2.042168 0.183899 75 75 75
-0.436967 1.792510 -0.292220 80 80 80
-0.510578 2.094476 0.264700 65 65 65
-0.448049 1.837970 -0.232283 83 83 83
-0.519307 2.130285 0.347285 60 60 60
-0.451111 1.850533 -0.166642 72 72 72
-0.531000 2.178249 0.435808 60 60 60
-0.464513 1.905507 -0.102788 75 75 75
-0.544151 2.232197 0.530435 61 61 61
-0.470289 1.929203 -0.034660 77 77 77
-0.552246 2.265405 0.624789 65 65 65
-0.404424 1.710834 -0.471051 96 96 96
-0.468310 1.981090 0.035533 81 81 81
-0.411994 1.742858 -0.413460 84 84 84
-0.478307 2.023382 0.108963 77 77 77
-0.417773 1.767303 -0.352997 86 86 86
-0.485391 2.053349 0.184596 79 79 79
-0.426260 1.803206 -0.293471 80 80 80
-0.494117 2.090262 0.263725 65 65 65
-0.436120 1.844917 -0.232770 83 83 83
-0.508513 2.151160 0.350100 62 62 62
-0.440931 1.865271 -0.167688 75 75 75
-0.516683 2.185724 0.436571 58 58 58
-0.451198 1.908704 -0.102788 75 75 75
-0.530347 2.243527 0.532234 61 61 61
-0.458649 1.940223 -0.034800 75 75 75
-0.539084 2.280485 0.627895 65 65 65
-0.405313 1.714594 -0.472086 93 93 93
-0.470150 1.988875 0.035673 81 81 81
-0.412891 1.746651 -0.414360 84 84 84
-0.478307 2.023382 0.108963 79 79 79
-0.420483 1.778766 -0.355286 81 81 81
-0.489975 2.072739 0.186339 79 79 79
-0.428078 1.810896 -0.294723 82 82 82
-0.496857 2.101853 0.265188 67 67 67
-0.434750 1.839121 -0.232039 86 86 86
-0.509422 2.155005 0.350726 62 62 62
-0.443681 1.876905 -0.168734 82 82 82
-0.520748 2.202919 0.440006 55 55 55
-0.452117 1.912591 -0.102997 73 73 73
-0.530347 2.243527 0.532234 59 59 59
-0.461409 1.951899 -0.035010 80 80 80
-0.541750 2.291765 0.631001 63 63 63
-0.395058 1.724914 -0.474156 93 93 93
-0.458932 2.003804 0.035882 83 83 83
-0.403297 1.760889 -0.417059 84 84 84
-0.465062 2.030565 0.109173 77 77 77
-0.405863 1.772090 -0.353378 78 78 78
-0.476382 2.079993 0.186688 79 79 79
-0.418953 1.829245 -0.297225 85 85 85
-0.485717 2.120750 0.267138 69 69 69
-0.423229 1.847916 -0.232770 81 81 81
-0.493923 2.156583 0.350413 60 60 60
-0.434126 1.895493 -0.170128 77 77 77
-0.507109 2.214156 0.441532 55 55 55
-0.441429 1.927382 -0.103625 77 77 77
-0.515977 2.252874 0.533584 57 57 57
-0.446879 1.951175 -0.034940 75 75 75
-0.531344 2.319972 0.637730 68 68 68
-0.394196 1.721148 -0.473121 86 86 86
-0.461611 2.015499 0.036092 81 81 81
-0.405908 1.772286 -0.419759 88 88 88
-0.468629 2.046140 0.110010 77 77 77
-0.407616 1.779745 -0.354905 73 73 73
-0.476382 2.079993 0.186688 72 72 72
-0.419835 1.833096 -0.297851 77 77 77
-0.488376 2.132360 0.268600 67 67 67
-0.423673 1.849851 -0.233014 78 78 78
-0.496569 2.168136 0.352290 64 64 64
-0.432347 1.887725 -0.169431 77 77 77
-0.510177 2.227552 0.444203 58 58 58
-0.444105 1.939063 -0.104253 80 80 80
-0.518587 2.264271 0.536283 55 55 55
-0.448664 1.958972 -0.035079 75 75 75
-0.529188 2.310556 0.635142 65 65 65
-0.384145 1.731335 -0.475192 90 90 90
-0.445282 2.006881 0.035882 81 81 81
-0.396367 1.786423 -0.422458 84 84 84
-0.457286 2.060981 0.110638 77 77 77
-0.396343 1.786311 -0.355668 78 78 78
-0.462213 2.083188 0.186688 72 72 72
-0.405636 1.828197 -0.296600 77 77 77
-0.476430 2.147263 0.270062 65 65 65
-0.413651 1.864320 -0.234477 76 76 76
-0.484367 2.183037 0.354168 60 60 60
-0.420351 1.894514 -0.169779 75 75 75
-0.495429 2.232889 0.444585 52 52 52
-0.432626 1.949841 -0.104672 77 77 77
-0.508228 2.290578 0.541682 57 57 57
-0.436186 1.965885 -0.035149 75 75 75
-0.516796 2.329193 0.639283 65 65 65
-0.386656 1.742651 -0.478298 90 90 90
-0.447881 2.018595 0.036092 77 77 77
-0.394679 1.778813 -0.420658 88 88 88
-0.459882 2.072681 0.111266 77 77 77
-0.399745 1.801645 -0.358721 76 76 76
-0.466097 2.100693 0.188256 69 69 69
-0.408204 1.839768 -0.298477 77 77 77
-0.475570 2.143387 0.269575 67 67 67
-0.415371 1.872072 -0.235452 78 78 78
-0.488218 2.200393 0.356983 62 62 62
-0.423803 1.910075 -0.171174 77 77 77
-0.497130 2.240556 0.446111 53 53 53
-0.431761 1.945941 -0.104463 77 77 77
-0.512450 2.309603 0.546181 55 55 55
-0.441384 1.989311 -0.035568 73 73 73
-0.520981 2.348053 0.644459 66 66 66
-0.375291 1.749086 -0.479333 86 86 86
-0.437134 2.037314 0.036371 79 79 79
-0.383886 1.789146 -0.422458 80 80 80
-0.444563 2.071935 0.111057 79 79 79
-0.387981 1.808231 -0.359484 78 78 78
-0.454764 2.119481 0.189651 67 67 67
-0.398665 1.858024 -0.300980 80 80 80
-0.462261 2.154418 0.270550 63 63 63
-0.400626 1.867162 -0.234477 76 76 76
-0.474503 2.211474 0.358235 62 62 62
-0.411294 1.916883 -0.171523 75 75 75
-0.484359 2.257409 0.448783 56 56 56
-0.419003 1.952813 -0.104672 75 75 75
-0.493860 2.301692 0.543482 57 57 57
-0.429163 2.000165 -0.035708 73 73 73
-0.508628 2.370521 0.649636 67 67 67
-0.377722 1.760419 -0.482439 83 83 83
-0.438812 2.045134 0.036510 79 79 79
-0.385522 1.796768 -0.424258 88 88 88
-0.445401 2.075841 0.111266 79 79 79
-0.387981 1.808231 -0.359484 78 78 78
-0.456436 2.127273 0.190348 67 67 67
-0.400323 1.865750 -0.302231 82 82 82
-0.464759 2.166064 0.272012 63 63 63
-0.403957 1.882690 -0.236427 78 78 78
-0.475746 2.217268 0.359174 64 64 64
-0.412966 1.924675 -0.172220 75 75 75
-0.487654 2.272765 0.451836 56 56 56
-0.420679 1.960625 -0.105091 75 75 75
-0.497540 2.318840 0.547531 59 59 59
-0.427485 1.992344 -0.035568 73 73 73
-0.511060 2.381854 0.652742 67 67 67
-0.363071 1.751663 -0.479333 83 83 83
-0.426147 2.055980 0.036650 74 74 74
-0.376133 1.814681 -0.427857 84 84 84
-0.434951 2.098456 0.112313 74 74 74
-0.376145 1.814740 -0.360247 78 78 78
-0.441574 2.130407 0.190348 67 67 67
-0.389693 1.880105 -0.304109 82 82 82
-0.454461 2.192581 0.274937 61 61 61
-0.393221 1.897127 -0.237889 76 76 76
-0.460656 2.222469 0.359486 62 62 62
-0.401137 1.935315 -0.172917 79 79 79
-0.474166 2.287649 0.454125 58 58 58
-0.411035 1.983071 -0.106137 80 80 80
-0.483317 2.331798 0.549780 55 55 55
-0.416001 2.007028 -0.035777 73 73 73
-0.495988 2.392931 0.654812 65 65 65
-0.364639 1.759230 -0.481403 83 83 83
-0.426959 2.059897 0.036720 77 77 77
-0.377715 1.822314 -0.429657 84 84 84
-0.436573 2.106279 0.112732 74 74 74
-0.378536 1.826274 -0.362537 73 73 73
-0.444809 2.146015 0.191743 67 67 67
-0.389693 1.880105 -0.304109 82 82 82
-0.456072 2.200356 0.275912 59 59 59
-0.395236 1.906846 -0.239108 80 80 80
-0.463061 2.234075 0.361364 62 62 62
-0.400328 1.931413 -0.172568 72 72 72
-0.472572 2.279959 0.452599 56 56 56
-0.412657 1.990893 -0.106556 80 80 80
-0.486481 2.347064 0.553380 55 55 55
-0.419248 2.022693 -0.036057 68 68 68
-0.495988 2.392931 0.654812 67 67 67
-0.354173 1.769248 -0.483474 83 83 83
-0.414498 2.070598 0.036859 72 72 72
-0.363772 1.817199 -0.427857 80 80 80
-0.425362 2.124869 0.113569 68 68 68
-0.368408 1.840359 -0.364827 76 76 76
-0.431365 2.154854 0.192266 63 63 63
-0.376111 1.878840 -0.303483 77 77 77
-0.440305 2.199516 0.275425 63 63 63
-0.383416 1.915331 -0.239839 76 76 76
-0.451721 2.256545 0.364492 62 62 62
-0.391083 1.953630 -0.174311 77 77 77
-0.459354 2.294673 0.454889 56 56 56
-0.398311 1.989739 -0.106347 80 80 80
-0.474701 2.371340 0.558329 52 52 52
-0.407040 2.033343 -0.036196 68 68 68
-0.484997 2.422771 0.662059 72 72 72
-0.356448 1.780614 -0.486580 79 79 79
-0.416853 2.082363 0.037069 74 74 74
-0.366067 1.828664 -0.430556 80 80 80
-0.423794 2.117036 0.113150 68 68 68
-0.369950 1.848059 -0.366353 76 76 76
-0.435275 2.174390 0.194009 60 60 60
-0.379213 1.894335 -0.305986 80 80 80
-0.442643 2.211195 0.276887 59 59 59
-0.383416 1.915331 -0.239839 76 76 76
-0.453660 2.266229 0.366057 64 64 64
-0.392647 1.961444 -0.175009 72 72 72
-0.462052 2.308149 0.457560 55 55 55
-0.399880 1.997573 -0.106765 73 73 73
-0.475084 2.373251 0.558778 55 55 55
-0.408610 2.041186 -0.036336 66 66 66
-0.486514 2.430348 0.664130 83 83 83
-0.345785 1.790586 -0.488650 79 79 79
-0.404186 2.093006 0.037209 72 72 72
-0.355089 1.838767 -0.432356 88 88 88
-0.411268 2.129676 0.113674 64 64 64
-0.357362 1.850534 -0.366353 78 78 78
-0.421976 2.185127 0.194706 60 60 60
-0.367808 1.904631 -0.307237 77 77 77
-0.430593 2.229750 0.278837 55 55 55
-0.371123 1.921795 -0.240326 76 76 76
-0.437475 2.265386 0.365431 60 60 60
-0.383065 1.983634 -0.176752 77 77 77
-0.448563 2.322806 0.459850 54 54 54
-0.388546 2.012015 -0.107393 77 77 77
-0.460027 2.382169 0.560128 51 51 51
-0.396224 2.051774 -0.036476 66 66 66
-0.470692 2.437397 0.665165 83 83 83
-0.345052 1.786792 -0.487615 79 79 79
-0.406840 2.106750 0.037453 68 68 68
-0.358045 1.854074 -0.435955 84 84 84
-0.414297 2.145365 0.114511 66 66 66
-0.358851 1.858245 -0.367880 78 78 78
-0.421598 2.183171 0.194532 58 58 58
-0.370805 1.920147 -0.309740 80 80 80
-0.434357 2.249240 0.281274 55 55 55
-0.373381 1.933489 -0.241789 74 74 74
-0.440471 2.280902 0.367934 60 60 60
-0.381554 1.975809 -0.176055 75 75 75
-0.450797 2.334372 0.462139 53 53 53
-0.391575 2.027703 -0.108231 75 75 75
-0.463722 2.401303 0.564627 57 57 57
-0.395844 2.049811 -0.036441 64 64 64
-0.470692 2.437397 0.665165 72 72 72
-0.333668 1.796813 -0.489686 69 69 69
-0.391389 2.107641 0.037418 72 72 72
-0.345480 1.860421 -0.436855 80 80 80
-0.400393 2.156129 0.114930 62 62 62
-0.346978 1.868486 -0.369406 78 78 78
-0.406329 2.188091 0.194706 62 62 62
-0.356334 1.918867 -0.309115 80 80 80
-0.418976 2.256195 0.281762 57 57 57
-0.362436 1.951725 -0.243739 78 78 78
-0.425581 2.291764 0.369185 60 60 60
-0.367406 1.978489 -0.176055 75 75 75
-0.435515 2.345259 0.463666 53 53 53
-0.377785 2.034380 -0.108440 75 75 75
-0.449374 2.419888 0.568226 57 57 57
-0.382992 2.062421 -0.036615 68 68 68
-0.453239 2.440703 0.665165 76 76 76
-0.335785 1.808209 -0.492791 72 72 72
-0.391389 2.107641 0.037418 70 70 70
-0.345480 1.860421 -0.436855 84 84 84
-0.402581 2.167911 0.115558 62 62 62
-0.348412 1.876207 -0.370933 76 76 76
-0.408511 2.199844 0.195752 62 62 62
-0.357055 1.922751 -0.309740 82 82 82
-0.418976 2.256195 0.281762 61 61 61
-0.364610 1.963436 -0.245201 76 76 76
-0.429548 2.313128 0.372627 62 62 62
-0.369588 1.990242 -0.177100 72 72 72
-0.435515 2.345259 0.463666 54 54 54
-0.377785 2.034380 -0.108440 80 80 80
-0.450797 2.427552 0.570026 58 58 58
-0.387008 2.084048 -0.036999 64 64 64
-0.454650 2.448300 0.667235 70 70 70
-0.325508 1.821864 -0.495897 72 72 72
-0.380199 2.127973 0.037732 68 68 68
-0.333494 1.866566 -0.437755 80 80 80
-0.386762 2.164703 0.115244 60 60 60
-0.338395 1.893997 -0.373986 78 78 78
-0.397032 2.222187 0.197495 62 62 62
-0.346044 1.936805 -0.311617 80 80 80
-0.405005 2.266811 0.282737 57 57 57
-0.349841 1.958055 -0.244226 78 78 78
-0.415531 2.325721 0.374191 60 60 60
-0.358135 2.004480 -0.178146 72 72 72
-0.424376 2.375226 0.469009 52 52 52
-0.365334 2.044769 -0.108859 77 77 77
-0.434263 2.430564 0.570026 59 59 59
-0.373869 2.092540 -0.037104 66 66 66
-0.437295 2.447535 0.666200 79 79 79
-0.326867 1.829470 -0.497968 74 74 74
-0.382310 2.139784 0.037942 66 66 66
-0.334865 1.874239 -0.439554 80 80 80
-0.388167 2.172567 0.115662 57 57 57
-0.338395 1.893997 -0.373986 76 76 76
-0.399836 2.237878 0.198889 63 63 63
-0.348823 1.952361 -0.314120 75 75 75
-0.407798 2.282444 0.284687 57 57 57
-0.351237 1.965872 -0.245201 74 74 74
-0.414141 2.317943 0.372940 54 54 54
-0.362340 2.028016 -0.180238 72 72 72
-0.428519 2.398418 0.473588 52 52 52
-0.367441 2.056566 -0.109487 75 75 75
-0.434948 2.434401 0.570926 60 60 60
-0.374572 2.096477 -0.037174 68 68 68
-0.438654 2.455142 0.668271 76 76 76
-0.313434 1.827900 -0.496933 71 71 71
-0.370066 2.158168 0.038221 66 66 66
-0.324078 1.889976 -0.442704 76 76 76
-0.376703 2.196878 0.116814 62 62 62
-0.326492 1.904053 -0.375512 78 78 78
-0.383529 2.236687 0.198541 63 63 63
-0.335853 1.958643 -0.314746 75 75 75
-0.393867 2.296974 0.286149 61 61 61
-0.339517 1.980015 -0.246664 78 78 78
-0.400953 2.338300 0.375756 56 56 56
-0.346153 2.018714 -0.179192 72 72 72
-0.411765 2.401351 0.473588 52 52 52
-0.355775 2.074829 -0.110324 73 73 73
-0.422553 2.464268 0.577224 60 60 60
-0.359927 2.099040 -0.037174 66 66 66
-0.419544 2.446720 0.665165 74 74 74
-0.314740 1.835516 -0.499003 69 69 69
-0.369390 2.154226 0.038151 63 63 63
-0.324737 1.893818 -0.443603 76 76 76
-0.378729 2.208689 0.117442 62 62 62
-0.328483 1.915663 -0.377802 80 80 80
-0.383866 2.238651 0.198715 56 56 56
-0.335853 1.958643 -0.314746 73 73 73
-0.395880 2.308714 0.287612 57 57 57
-0.342201 1.995668 -0.248613 76 76 76
-0.403958 2.355823 0.378571 54 54 54
-0.347500 2.026568 -0.179889 72 72 72
-0.414419 2.416831 0.476641 52 52 52
-0.357125 2.082703 -0.110743 71 71 71
-0.424529 2.475792 0.579924 60 60 60
-0.362630 2.114808 -0.037453 73 73 73
-0.418238 2.439104 0.663094 72 72 72
-0.304120 1.849053 -0.502109 71 71 71
-0.356665 2.168530 0.038360 65 65 65
-0.311839 1.895984 -0.443603 73 73 73
-0.365955 2.225011 0.118175 59 59 59
-0.317347 1.929478 -0.380092 85 85 85
-0.374763 2.278566 0.202027 67 67 67
-0.323154 1.964782 -0.315372 70 70 70
-0.381445 2.319190 0.288587 59 59 59
-0.329254 2.001868 -0.249101 72 72 72
-0.389516 2.368264 0.380136 50 50 50
-0.336284 2.044615 -0.181284 72 72 72
-0.398596 2.423471 0.477404 52 52 52
-0.342941 2.085086 -0.110743 73 73 73
-0.409881 2.492085 0.583073 61 61 61
-0.349525 2.125120 -0.037592 66 66 66
-0.402880 2.449519 0.665165 74 74 74
-0.305374 1.856678 -0.504179 72 72 72
-0.359261 2.184316 0.038640 63 63 63
-0.312471 1.899830 -0.444503 73 73 73
-0.365631 2.223041 0.118070 64 64 64
-0.319578 1.943039 -0.382763 100 100 100
-0.372823 2.266770 0.200981 60 60 60
-0.324436 1.972579 -0.316623 73 73 73
-0.382733 2.327025 0.289562 59 59 59
-0.328609 1.997951 -0.248613 76 76 76
-0.392081 2.383857 0.382639 50 50 50
-0.339194 2.062308 -0.182853 66 66 66
-0.402419 2.446717 0.481984 51 51 51
-0.343589 2.089028 -0.110952 71 71 71
-0.410514 2.495931 0.583973 64 64 64
-0.351148 2.134986 -0.037767 64 64 64
-0.402880 2.449519 0.665165 67 67 67
-0.294479 1.874083 -0.508321 72 72 72
-0.345795 2.200659 0.038884 70 70 70
-0.300078 1.909718 -0.446303 73 73 73
-0.352194 2.241385 0.118907 66 66 66
-0.303228 1.929760 -0.379710 86 86 86
-0.359686 2.289062 0.202724 62 62 62
-0.311539 1.982656 -0.317875 70 70 70
-0.367921 2.341470 0.291024 61 61 61
-0.316153 2.012017 -0.250076 74 74 74
-0.374399 2.382699 0.382013 51 51 51
-0.324738 2.066651 -0.183027 68 68 68
-0.387339 2.465050 0.485036 49 49 49
-0.332352 2.115109 -0.112208 68 68 68
-0.396878 2.525756 0.590272 72 72 72
-0.336482 2.141395 -0.037837 64 64 64
-0.386541 2.459973 0.667235 74 74 74
-0.292680 1.862633 -0.505215 72 72 72
-0.346726 2.206585 0.038989 65 65 65
-0.301893 1.921269 -0.449002 69 69 69
-0.354054 2.253223 0.119535 64 64 64
-0.304751 1.939457 -0.381618 76 76 76
-0.359686 2.289062 0.202724 62 62 62
-0.314606 2.002170 -0.321004 75 75 75
-0.371002 2.361081 0.293461 57 57 57
-0.318002 2.023783 -0.251538 72 72 72
-0.376852 2.398311 0.384516 52 52 52
-0.325356 2.070588 -0.183376 68 68 68
-0.388253 2.470868 0.486181 52 52 52
-0.334212 2.126948 -0.112836 68 68 68
-0.398088 2.533456 0.592071 76 76 76
-0.336793 2.143370 -0.037872 66 66 66
-0.384742 2.448522 0.664130 74 74 74
-0.281716 1.876044 -0.508321 69 69 69
-0.331995 2.210871 0.039024 70 70 70
-0.289677 1.929060 -0.450352 65 65 65
-0.339599 2.261506 0.119849 60 60 60
-0.292418 1.947311 -0.382763 65 65 65
-0.346463 2.307220 0.204119 60 60 60
-0.300383 2.000358 -0.320378 70 70 70
-0.356101 2.371404 0.294436 59 59 59
-0.305988 2.037680 -0.253001 70 70 70
-0.362865 2.416448 0.387019 52 52 52
-0.312734 2.082606 -0.184247 65 65 65
-0.372300 2.479278 0.487326 54 54 54
-0.320913 2.137074 -0.113255 68 68 68
-0.382570 2.547670 0.594771 76 76 76
-0.323977 2.157478 -0.038081 66 66 66
-0.367493 2.447264 0.663094 74 74 74
-0.333183 2.218782 0.039163 70 70 70
-0.342268 2.279282 0.120791 66 66 66
-0.291251 1.939545 -0.381236 33 33 33
-0.348830 2.322982 0.205513 60 60 60
-0.302143 2.012079 -0.322255 70 70 70
-0.356101 2.371404 0.294436 57 57 57
-0.307756 2.049458 -0.254463 66 66 66
-0.363452 2.420355 0.387645 52 52 52
-0.314213 2.092457 -0.185119 70 70 70
-0.373758 2.488986 0.489234 50 50 50
-0.320913 2.137074 -0.113255 69 69 69
-0.384307 2.559233 0.597470 74 74 74
-0.326353 2.173298 -0.038360 66 66 66
-0.368067 2.451084 0.664130 72 72 72
-0.320233 2.238869 0.039477 66 66 66
-0.326347 2.281616 0.120791 66 66 66
-0.276592 1.933757 -0.379710 33 33 33
-0.334861 2.341139 0.206908 60 60 60
-0.289767 2.025872 -0.324132 68 68 68
-0.341224 2.385622 0.295899 55 55 55
-0.293441 2.051557 -0.254463 66 66 66
-0.349343 2.442388 0.390773 52 52 52
-0.301573 2.108406 -0.186339 65 65 65
-0.358875 2.509026 0.492669 57 57 57
-0.306834 2.145193 -0.113569 66 66 66
-0.366155 2.559925 0.597020 68 68 68
-0.313438 2.191360 -0.038640 66 66 66
-0.351493 2.457419 0.665165 74 74 74
-0.321366 2.246788 0.039617 65 65 65
-0.285584 1.996625 -0.465649 1 1 1
-0.328610 2.297433 0.121629 64 64 64
-0.273812 1.914323 -0.375894 31 31 31
-0.336554 2.352973 0.207954 62 62 62
-0.290886 2.033694 -0.325384 70 70 70
-0.344034 2.405273 0.298336 55 55 55
-0.294565 2.059417 -0.255438 66 66 66
-0.349343 2.442388 0.390773 50 50 50
-0.302419 2.114323 -0.186862 68 68 68
-0.361654 2.528461 0.496485 52 52 52
-0.310228 2.168919 -0.114825 63 63 63
-0.365327 2.554137 0.595670 64 64 64
-0.313721 2.193340 -0.038675 64 64 64
-0.351493 2.457419 0.665165 69 69 69
-0.308222 2.264774 0.039896 66 66 66
-0.265155 1.948319 -0.453951 1 1 1
-0.314580 2.311491 0.122257 62 62 62
-0.259716 1.908361 -0.374367 31 31 31
-0.321336 2.361132 0.208477 56 56 56
-0.278635 2.047371 -0.327261 70 70 70
-0.330064 2.425262 0.300530 53 53 53
-0.282147 2.073176 -0.256901 62 62 62
-0.333243 2.448624 0.391399 51 51 51
-0.287752 2.114358 -0.186688 65 65 65
-0.344435 2.530864 0.496485 52 52 52
-0.296265 2.176917 -0.115139 66 66 66
-0.348196 2.558496 0.596120 69 69 69
-0.300941 2.211276 -0.038954 64 64 64
-0.333716 2.452098 0.663094 72 72 72
-0.308222 2.264774 0.039896 63 63 63
-0.265155 1.948319 -0.453951 1 1 1
-0.315927 2.321386 0.122780 60 60 60
-0.260246 1.912251 -0.375130 31 31 31
-0.323485 2.376926 0.209871 54 54 54
-0.279168 2.051285 -0.327887 70 70 70
-0.331670 2.437064 0.301992 52 52 52
-0.283218 2.081044 -0.257876 66 66 66
-0.337505 2.479941 0.396405 56 56 56
-0.289632 2.128178 -0.187908 66 66 66
-0.346024 2.542536 0.498775 52 52 52
-0.297343 2.184834 -0.115558 60 60 60
-0.349773 2.570081 0.598820 68 68 68
-0.302559 2.223164 -0.039163 63 63 63
-0.333716 2.452098 0.663094 70 70 70
-0.294336 2.278719 0.040106 66 66 66
-0.251887 1.950078 -0.453951 1 1 1
-0.302165 2.339329 0.123618 60 60 60
-0.246721 1.910084 -0.374367 27 27 27
-0.308830 2.390928 0.210917 59 59 59
-0.265199 2.053138 -0.327887 70 70 70
-0.315074 2.439265 0.301992 52 52 52
-0.270572 2.094736 -0.259338 66 66 66
-0.321882 2.491977 0.397969 54 54 54
-0.277181 2.145908 -0.189302 63 63 63
-0.330219 2.556514 0.501064 52 52 52
-0.282976 2.190768 -0.115767 66 66 66
-0.331272 2.564672 0.597020 68 68 68
-0.288957 2.237072 -0.039373 61 61 61
-0.317017 2.454312 0.663094 72 72 72
-0.296386 2.294585 0.040385 63 63 63
-0.254882 1.973271 -0.459350 1 1 1
-0.302165 2.339329 0.123618 60 60 60
-0.245966 1.904243 -0.373222 21 21 21
-0.311127 2.408712 0.212486 55 55 55
-0.266970 2.066852 -0.330077 66 66 66
-0.316599 2.451077 0.303455 52 52 52
-0.271080 2.098673 -0.259825 66 66 66
-0.324160 2.509609 0.400785 52 52 52
-0.278202 2.153811 -0.190000 66 66 66
-0.332231 2.572091 0.504117 51 51 51
-0.284511 2.202653 -0.116395 66 66 66
-0.330523 2.558874 0.595670 72 72 72
-0.291519 2.256904 -0.039722 58 58 58
-0.318007 2.461976 0.665165 69 69 69
-0.237840 1.948298 -0.525920 1 1 1
-0.282783 2.316448 0.040734 65 65 65
-0.239447 1.961461 -0.456201 1 1 1
-0.287278 2.353276 0.124246 60 60 60
-0.231001 1.892272 -0.370551 15 15 15
-0.296235 2.426647 0.213880 60 60 60
-0.254689 2.086313 -0.332893 73 73 73
-0.301886 2.472932 0.305892 51 51 51
-0.256903 2.104456 -0.260313 68 68 68
-0.307110 2.515732 0.401411 51 51 51
-0.263884 2.161634 -0.190522 68 68 68
-0.317121 2.597733 0.508697 50 50 50
-0.269853 2.210533 -0.116709 66 66 66
-0.311706 2.553381 0.593871 74 74 74
-0.276240 2.262854 -0.039791 64 64 64
-0.300344 2.460301 0.664130 69 69 69
-0.234563 1.921451 -0.518673 1 1 1
-0.283267 2.320418 0.040804 63 63 63
-0.245351 2.009821 -0.467448 1 1 1
-0.288973 2.367154 0.124978 55 55 55
-0.231953 1.900067 -0.372078 9 9 9
-0.295752 2.422692 0.213532 55 55 55
-0.255407 2.092195 -0.333831 66 66 66
-0.303810 2.488696 0.307842 53 53 53
-0.259309 2.124160 -0.262750 64 64 64
-0.308547 2.527497 0.403288 51 51 51
-0.264125 2.163612 -0.190697 65 65 65
-0.319500 2.617221 0.512513 51 51 51
-0.271305 2.222429 -0.117337 63 63 63
-0.312179 2.557250 0.594771 72 72 72
-0.276725 2.266824 -0.039861 60 60 60
-0.299407 2.452631 0.662059 72 72 72
-0.219819 1.911527 -0.515568 1 1 1
-0.267061 2.322339 0.040804 63 63 63
-0.227752 1.980509 -0.460250 1 1 1
-0.274722 2.388956 0.126025 53 53 53
-0.219131 1.905541 -0.372841 8 8 8
-0.280653 2.440532 0.214926 60 60 60
-0.240794 2.093927 -0.333831 66 66 66
-0.287335 2.498645 0.308817 53 53 53
-0.246288 2.141696 -0.264700 62 62 62
-0.293602 2.553139 0.407042 49 49 49
-0.250380 2.177279 -0.191743 63 63 63
-0.302566 2.631090 0.514803 55 55 55
-0.256696 2.232205 -0.117756 66 66 66
-0.295431 2.569047 0.597020 69 69 69
-0.262720 2.284593 -0.040141 57 57 57
-0.282278 2.454661 0.662059 72 72 72
-0.222467 1.934557 -0.521779 1 1 1
-0.268660 2.336245 0.041048 62 62 62
-0.227974 1.982445 -0.460700 1 1 1
-0.276547 2.404829 0.126862 60 60 60
-0.219131 1.905541 -0.372841 4 4 4
-0.282018 2.452408 0.215972 60 60 60
-0.242374 2.107664 -0.336021 68 68 68
-0.287335 2.498645 0.308817 52 52 52
-0.246741 2.145640 -0.265188 62 62 62
-0.295633 2.570801 0.409858 49 49 49
-0.252200 2.193114 -0.193137 66 66 66
-0.302342 2.629140 0.514421 60 60 60
-0.257152 2.236174 -0.117965 63 63 63
-0.295431 2.569047 0.597020 69 69 69
-0.263406 2.290553 -0.040245 56 56 56
-0.282719 2.458500 0.663094 70 70 70
-0.211786 1.959074 -0.527991 1 1 1
-0.254471 2.353924 0.041327 59 59 59
-0.214266 1.982013 -0.460250 1 1 1
-0.260386 2.408642 0.126967 57 57 57
-0.206155 1.906989 -0.372841 4 4 4
-0.267246 2.472099 0.217541 59 59 59
-0.228234 2.111229 -0.336334 64 64 64
-0.271601 2.512384 0.310279 51 51 51
-0.232557 2.151217 -0.265675 64 64 64
-0.279189 2.582573 0.411423 49 49 49
-0.238552 2.206665 -0.194183 65 65 65
-0.286127 2.646752 0.517474 60 60 60
-0.244501 2.261701 -0.119221 64 64 64
-0.276681 2.559374 0.594321 69 69 69
-0.249313 2.306210 -0.040490 60 60 60
-0.265978 2.460367 0.663094 72 72 72
-0.212201 1.962916 -0.529026 1 1 1
-0.257265 2.379770 0.041781 56 56 56
-0.216779 2.005263 -0.465649 1 1 1
-0.261245 2.416584 0.127386 57 57 57
-0.205733 1.903085 -0.372078 4 4 4
-0.268531 2.483984 0.218587 59 59 59
-0.230358 2.130868 -0.339463 66 66 66
-0.273308 2.528173 0.312229 54 54 54
-0.233411 2.159111 -0.266650 66 66 66
-0.280038 2.590429 0.412674 49 49 49
-0.239408 2.214588 -0.194880 65 65 65
-0.288659 2.670175 0.522053 56 56 56
-0.244931 2.265672 -0.119431 62 62 62
-0.276262 2.555499 0.593421 68 68 68
-0.249528 2.308198 -0.040524 56 56 56
-0.266809 2.468050 0.665165 70 70 70
-0.197327 1.952817 -0.525920 1 1 1
-0.240846 2.383498 0.041816 56 56 56
-0.203950 2.018360 -0.468348 1 1 1
-0.246777 2.442195 0.128642 59 59 59
-0.191653 1.896662 -0.370551 4 4 4
-0.251784 2.491745 0.219110 57 57 57
-0.216866 2.146182 -0.341653 68 68 68
-0.258047 2.553720 0.315154 52 52 52
-0.219529 2.172538 -0.268113 66 66 66
-0.263734 2.610009 0.415490 47 47 47
-0.224342 2.220170 -0.195229 65 65 65
-0.269419 2.666265 0.520909 53 53 53
-0.230312 2.279249 -0.120059 59 59 59
-0.259003 2.563182 0.594771 72 72 72
-0.234614 2.321821 -0.040734 57 57 57
-0.248018 2.454476 0.661024 72 72 72
-0.198881 1.968193 -0.530061 1 1 1
-0.241248 2.387477 0.041886 56 56 56
-0.205125 2.029994 -0.471048 1 1 1
-0.247982 2.454118 0.129270 59 59 59
-0.193232 1.912288 -0.373604 4 4 4
-0.253186 2.505621 0.220330 59 59 59
-0.216270 2.140286 -0.340714 66 66 66
-0.259643 2.569520 0.317104 54 54 54
-0.221126 2.188339 -0.270062 68 68 68
-0.266316 2.635559 0.419557 56 56 56
-0.225544 2.232064 -0.196275 65 65 65
-0.268629 2.658452 0.519382 52 52 52
-0.232320 2.299121 -0.121105 59 59 59
-0.259982 2.572876 0.597020 66 66 66
-0.235418 2.329779 -0.040874 56 56 56
-0.248407 2.458320 0.662059 72 72 72
-0.186204 1.977195 -0.532132 1 1 1
-0.225929 2.399018 0.042060 60 60 60
-0.191303 2.031343 -0.471048 2 2 2
-0.233332 2.477622 0.130421 60 60 60
-0.180211 1.913559 -0.373604 4 4 4
-0.238180 2.529106 0.222247 60 60 60
-0.202623 2.151542 -0.342279 68 68 68
-0.241775 2.567275 0.316617 52 52 52
-0.207714 2.205604 -0.272012 62 62 62
-0.248556 2.639277 0.419870 47 47 47
-0.211467 2.245449 -0.197321 63 63 63
-0.250528 2.660218 0.519382 53 53 53
-0.216665 2.300649 -0.121105 59 59 59
-0.243194 2.582347 0.598820 68 68 68
-0.221429 2.351237 -0.041223 56 56 56
-0.231668 2.459954 0.662059 70 70 70
-0.188196 1.998352 -0.537826 1 1 1
-0.227617 2.416936 0.042374 57 57 57
-0.190389 2.021642 -0.468798 2 2 2
-0.232583 2.469668 0.130003 60 60 60
-0.180579 1.917468 -0.374367 4 4 4
-0.238927 2.537040 0.222944 55 55 55
-0.203919 2.165309 -0.344469 64 64 64
-0.242519 2.575181 0.317592 51 51 51
-0.206597 2.193746 -0.270550 62 62 62
-0.251334 2.668778 0.424563 56 56 56
-0.213335 2.265285 -0.199064 60 60 60
-0.251264 2.668037 0.520909 53 53 53
-0.217040 2.304626 -0.121315 61 61 61
-0.241367 2.562945 0.594321 68 68 68
-0.223304 2.371146 -0.041572 57 57 57
-0.232030 2.463800 0.663094 70 70 70
-0.174589 1.999586 -0.537826 3 3 3
-0.212899 2.438350 0.042723 57 57 57
-0.180353 2.065601 -0.478696 2 2 2
-0.217504 2.491091 0.131049 60 60 60
-0.166498 1.906918 -0.372078 4 4 4
-0.222693 2.550517 0.223990 57 57 57
-0.190207 2.178454 -0.346346 63 63 63
-0.227748 2.608413 0.321491 51 51 51
-0.192696 2.206967 -0.272012 62 62 62
-0.232475 2.662555 0.423312 49 49 49
-0.199644 2.286533 -0.200807 59 59 59
-0.233439 2.673597 0.521672 55 55 55
-0.203432 2.329926 -0.122571 59 59 59
-0.222899 2.552881 0.591621 68 68 68
-0.206811 2.368626 -0.041502 57 57 57
-0.215590 2.469172 0.664130 70 70 70
-0.173917 1.991888 -0.535755 2 2 2
-0.214117 2.452295 0.042968 60 60 60
-0.180353 2.065601 -0.478696 2 2 2
-0.218546 2.503029 0.131677 60 60 60
-0.166840 1.910830 -0.372841 4 4 4
-0.222866 2.552502 0.224165 54 54 54
-0.191581 2.194197 -0.348849 64 64 64
-0.229129 2.624234 0.323441 51 51 51
-0.194423 2.226742 -0.274450 64 64 64
-0.232991 2.668459 0.424250 49 49 49
-0.198604 2.274624 -0.199761 56 56 56
-0.233781 2.677509 0.522435 52 52 52
-0.204996 2.347833 -0.123513 56 56 56
-0.224764 2.574236 0.596570 72 72 72
-0.207507 2.376595 -0.041641 55 55 55
-0.214582 2.457624 0.661024 70 70 70
-0.160235 2.004664 -0.538861 1 1 1
-0.196294 2.455792 0.043003 57 57 57
-0.165673 2.072695 -0.480046 3 3 3
-0.201625 2.522482 0.132619 57 57 57
-0.153141 1.915915 -0.373604 4 4 4
-0.205261 2.567969 0.225385 52 52 52
-0.175492 2.195543 -0.348849 61 61 61
-0.211152 2.641673 0.325391 51 51 51
-0.179044 2.239980 -0.275912 59 59 59
-0.214998 2.689786 0.427379 49 49 49
-0.182560 2.283963 -0.200458 57 57 57
-0.213209 2.667408 0.520145 52 52 52
-0.188417 2.357237 -0.123932 53 53 53
-0.205422 2.569986 0.595220 68 68 68
-0.191036 2.390012 -0.041851 55 55 55
-0.196561 2.459131 0.661024 74 74 74
-0.161159 2.016218 -0.541967 4 4 4
-0.197250 2.467752 0.043212 57 57 57
-0.163810 2.049385 -0.474647 4 4 4
-0.202420 2.532437 0.133143 56 56 56
-0.153611 1.921786 -0.374749 4 4 4
-0.206531 2.583858 0.226779 52 52 52
-0.176122 2.203419 -0.350100 63 63 63
-0.212417 2.657503 0.327341 51 51 51
-0.180309 2.255811 -0.277862 61 61 61
-0.217358 2.719322 0.432072 50 50 50
-0.183195 2.291908 -0.201155 57 57 57
-0.212583 2.659580 0.518619 54 54 54
-0.188417 2.357237 -0.123932 56 56 56
-0.205732 2.573872 0.596120 66 66 66
-0.192630 2.409945 -0.042200 55 55 55
-0.196869 2.462983 0.662059 70 70 70
-0.146798 2.013441 -0.540932 7 7 7
-0.180890 2.481036 0.043422 57 57 57
-0.150632 2.066027 -0.478246 4 4 4
-0.185026 2.537772 0.133352 56 56 56
-0.140476 1.926728 -0.375512 4 4 4
-0.190226 2.609082 0.228871 47 47 47
-0.162171 2.224296 -0.353229 60 60 60
-0.194725 2.670800 0.328803 51 51 51
-0.165134 2.264934 -0.278837 64 64 64
-0.199518 2.736535 0.434575 56 56 56
-0.169218 2.320950 -0.203596 58 58 58
-0.194582 2.668832 0.520145 53 53 53
-0.172827 2.370446 -0.124560 55 55 55
-0.186625 2.559696 0.592521 69 69 69
-0.177255 2.431176 -0.042549 55 55 55
-0.179950 2.468151 0.663094 70 70 70
-0.145955 2.001880 -0.537826 7 7 7
-0.182344 2.500980 0.043771 63 63 63
-0.150774 2.067970 -0.478696 4 4 4
-0.185753 2.547732 0.133875 54 54 54
-0.138905 1.905189 -0.371314 4 4 4
-0.191529 2.626966 0.230440 50 50 50
-0.163033 2.236117 -0.355106 60 60 60
-0.195880 2.686639 0.330753 48 48 48
-0.165711 2.272853 -0.279812 60 60 60
-0.200524 2.750326 0.436765 60 60 60
-0.169508 2.324924 -0.203944 58 58 58
-0.194867 2.672748 0.520909 52 52 52
-0.173989 2.386382 -0.125397 58 58 58
-0.186908 2.563584 0.593421 69 69 69
-0.176964 2.427187 -0.042479 54 54 54
-0.179950 2.468151 0.663094 70 70 70
-0.131653 1.987383 -0.533685 7 7 7
-0.166546 2.514106 0.043980 61 61 61
-0.137442 2.074758 -0.480046 4 4 4
-0.170172 2.568837 0.134922 53 53 53
-0.126007 1.902151 -0.370551 4 4 4
-0.174234 2.630166 0.230614 52 52 52
-0.148721 2.245033 -0.356358 53 53 53
-0.179370 2.707687 0.333191 50 50 50
-0.151421 2.285787 -0.281274 60 60 60
-0.183192 2.765392 0.438955 66 66 66
-0.154348 2.329974 -0.204293 58 58 58
-0.177396 2.677899 0.521672 52 52 52
-0.159742 2.411398 -0.126653 56 56 56
-0.170160 2.568656 0.594321 68 68 68
-0.161391 2.436288 -0.042619 54 54 54
-0.163577 2.469290 0.663094 70 70 70
-0.131398 1.983528 -0.532650 8 8 8
-0.166810 2.518096 0.044050 61 61 61
