-1.825339 1.429706 0.450691 88 88 88
-2.018908 1.581320 -0.134399 71 71 71
-1.794969 1.405918 0.526385 90 90 90
-2.002479 1.568452 -0.044399 90 90 90
-1.776371 1.391352 0.604601 99 99 99
-1.985162 1.554888 0.044015 82 82 82
-1.948152 1.525900 0.129688 92 92 92
-1.930854 1.512351 0.214577 78 78 78
-1.890964 1.481107 0.294924 86 86 86
-1.866157 1.461677 0.375443 93 93 93
-2.065747 1.618006 -0.229568 3 3 3
-1.837704 1.439391 0.453744 93 93 93
-2.040921 1.598561 -0.135864 65 65 65
-1.794969 1.405918 0.526385 87 87 87
-1.999331 1.565986 -0.044329 82 82 82
-1.785496 1.398499 0.607707 100 100 100
-1.982087 1.574929 0.044189 86 86 86
-1.949961 1.549403 0.130526 89 89 89
-1.917129 1.523315 0.214229 88 88 88
-1.894565 1.505386 0.297117 91 91 91
-1.862094 1.479585 0.376694 91 91 91
-1.836833 1.459513 0.456033 93 93 93
-2.042221 1.622711 -0.136702 61 61 61
-1.798841 1.429326 0.530435 90 90 90
-1.997743 1.587370 -0.044539 77 77 77
-1.772664 1.408526 0.606672 100 100 100
-1.977390 1.571197 0.044085 82 82 82
-1.959344 1.556858 0.131154 89 89 89
-1.923368 1.528273 0.214926 88 88 88
-1.902336 1.511561 0.298336 86 86 86
-1.865187 1.482043 0.377320 91 91 91
-1.063858 0.845322 -0.118880 1 1 1
-1.836833 1.459513 0.456033 96 96 96
-2.054731 1.632651 -0.137539 45 45 45
-1.803419 1.432963 0.531784 88 88 88
-2.007137 1.594834 -0.044748 85 85 85
-1.775689 1.410930 0.607707 100 100 100
-1.972323 1.590328 0.044224 82 82 82
-1.960591 1.580868 0.131991 85 85 85
-1.917036 1.545749 0.215449 88 88 88
-1.886835 1.521397 0.297605 91 91 91
-1.869912 1.507751 0.380449 89 89 89
-1.067088 0.860417 -0.119926 2 2 2
-1.827870 1.473852 0.456415 99 99 99
-2.044550 1.648566 -0.137644 39 39 39
-1.806772 1.456840 0.535833 90 90 90
-2.008127 1.619197 -0.045027 85 85 85
-1.774571 1.430876 0.610813 92 92 92
-1.984777 1.600369 0.044504 82 82 82
-1.957482 1.578361 0.131782 85 85 85
-1.923240 1.550751 0.216146 81 81 81
-1.891471 1.525135 0.298336 96 96 96
-1.872987 1.510231 0.381074 80 80 80
-1.065537 0.859166 -0.119752 5 5 5
-1.835512 1.480014 0.458323 88 88 88
-2.042995 1.647312 -0.137539 19 19 19
-1.802221 1.453170 0.534484 90 90 90
-2.017467 1.626728 -0.045237 82 82 82
-1.783594 1.438151 0.613919 99 99 99
-1.984674 1.622702 0.044748 71 71 71
-1.949785 1.594177 0.131991 85 85 85
-1.915725 1.566328 0.216495 81 81 81
-1.904098 1.556822 0.301992 100 100 100
-1.865723 1.525446 0.381700 77 77 77
-1.067376 0.872705 -0.120624 5 5 5
-1.837554 1.502415 0.461376 96 96 96
-2.034828 1.663709 -0.137748 38 38 38
-1.793796 1.466637 0.534934 94 94 94
-2.000155 1.635360 -0.045097 82 82 82
-1.788720 1.462487 0.619095 97 97 97
-1.990866 1.627765 0.044888 74 74 74
-1.962155 1.604290 0.132829 85 85 85
-1.918810 1.568851 0.216843 79 79 79
-1.902561 1.555566 0.301748 96 96 96
-1.862664 1.522945 0.381074 79 79 79
-1.843634 1.507386 0.462903 88 88 88
-2.048744 1.675087 -0.138690 44 44 44
-1.801339 1.472805 0.537183 86 86 86
-2.009444 1.642954 -0.045306 85 85 85
-1.782737 1.457595 0.617025 99 99 99
-1.982819 1.643831 0.044957 74 74 74
-1.963490 1.627807 0.133666 79 79 79
-1.924959 1.595863 0.218761 94 94 94
-1.901098 1.576081 0.303211 96 96 96
-1.864420 1.545674 0.383577 77 77 77
-2.079876 1.724295 -0.236366 63 63 63
-1.836354 1.522406 0.463666 90 90 90
-2.049595 1.699191 -0.139528 40 40 40
-1.801774 1.493738 0.540332 84 84 84
-2.010530 1.666804 -0.045586 82 82 82
-1.772775 1.469696 0.617025 100 100 100
-1.985898 1.646384 0.045027 74 74 74
-1.974253 1.636730 0.134399 71 71 71
-1.934162 1.603492 0.219807 94 94 94
-1.902626 1.577348 0.303455 100 100 100
-1.879628 1.558282 0.386706 79 79 79
-2.098282 1.739554 -0.238458 69 69 69
-1.836354 1.522406 0.463666 88 88 88
-2.049595 1.699191 -0.139528 71 71 71
-1.813776 1.503688 0.543932 84 84 84
-2.025924 1.679567 -0.045935 79 79 79
-1.784672 1.479560 0.621166 97 97 97
-1.985070 1.669217 0.045272 78 78 78
-1.959722 1.647902 0.134189 76 76 76
-1.932070 1.624650 0.220853 91 91 91
-1.891568 1.590593 0.303455 91 91 91
-1.871727 1.573909 0.387332 82 82 82
-2.096761 1.763136 -0.239678 68 68 68
-1.834696 1.542770 0.465956 88 88 88
-2.043797 1.718600 -0.139946 67 67 67
-1.803234 1.516314 0.543932 84 84 84
-2.023332 1.701391 -0.046144 82 82 82
-1.783171 1.499443 0.624272 100 100 100
-1.995783 1.678226 0.045516 71 71 71
-1.962779 1.650473 0.134399 76 76 76
-1.944269 1.634908 0.222247 91 91 91
-1.903723 1.600813 0.305405 100 100 100
-1.874751 1.576451 0.387957 77 77 77
-2.104385 1.769548 -0.240550 66 66 66
-1.852728 1.557932 0.470535 85 85 85
-2.052969 1.726312 -0.140574 65 65 65
-1.812183 1.523839 0.546631 84 84 84
-2.023332 1.701391 -0.046144 79 79 79
-1.795000 1.509390 0.628413 100 100 100
-1.994669 1.701201 0.045760 82 82 82
-1.964885 1.675800 0.135341 79 79 79
-1.932808 1.648442 0.222247 91 91 91
-1.901563 1.621794 0.306867 91 91 91
-1.866705 1.592065 0.388583 77 77 77
-2.085917 1.779024 -0.239853 66 66 66
-1.847781 1.575925 0.472061 77 77 77
-2.059103 1.756155 -0.141830 71 71 71
-1.810397 1.544041 0.549330 82 82 82
-2.020534 1.723261 -0.046354 75 75 75
-1.787358 1.524391 0.629448 100 100 100
-1.994669 1.701201 0.045760 82 82 82
-1.974003 1.683576 0.135969 82 82 82
-1.935840 1.651027 0.222596 91 91 91
-1.913646 1.632099 0.308817 91 91 91
-1.878729 1.602319 0.391086 79 79 79
-2.101076 1.791953 -0.241596 66 66 66
-1.847781 1.575925 0.472061 82 82 82
-2.062142 1.758747 -0.142040 74 74 74
-1.816328 1.549099 0.551130 84 84 84
-2.032706 1.733642 -0.046633 75 75 75
-1.790298 1.526899 0.630483 94 94 94
-1.987281 1.719010 0.045865 71 71 71
-1.971265 1.705156 0.136597 85 85 85
-1.933308 1.672322 0.223642 87 87 87
-1.894699 1.638925 0.307598 86 86 86
-0.926330 0.801281 -0.150387 1 1 1
-1.882437 1.628319 0.394215 79 79 79
-2.097556 1.814398 -0.242642 61 61 61
-1.839704 1.591355 0.472825 80 80 80
-2.046792 1.770487 -0.141830 67 67 67
-1.817260 1.571941 0.554729 82 82 82
-2.029628 1.755640 -0.046842 72 72 72
-1.785439 1.544415 0.632554 90 90 90
-2.002405 1.732092 0.046214 86 86 86
-1.971265 1.705156 0.136597 85 85 85
-1.946869 1.684054 0.225210 82 82 82
-1.909712 1.651912 0.310036 96 96 96
-0.926330 0.801281 -0.150387 1 1 1
-1.888413 1.633489 0.395466 77 77 77
-2.109611 1.824826 -0.244036 61 61 61
-1.848613 1.599061 0.475114 80 80 80
-2.058877 1.780940 -0.142668 67 67 67
-1.820208 1.574490 0.555629 78 78 78
-2.035677 1.760873 -0.046982 77 77 77
-1.794206 1.551998 0.635660 83 83 83
-2.001093 1.754911 0.046458 82 82 82
-1.962616 1.721168 0.136806 79 79 79
-1.941353 1.702521 0.225908 82 82 82
-1.908871 1.674035 0.311742 91 91 91
-0.944734 0.828510 -0.154287 1 1 1
-1.874281 1.643700 0.394841 79 79 79
-2.107626 1.848339 -0.245256 57 57 57
-1.849494 1.621963 0.478167 84 84 84
-2.061723 1.808082 -0.143715 69 69 69
-1.812379 1.589413 0.556529 78 78 78
-2.029658 1.779963 -0.047121 70 70 70
-1.795220 1.574365 0.639801 83 83 83
-2.007107 1.760185 0.046598 82 82 82
-1.977632 1.734337 0.137853 85 85 85
-1.944349 1.705148 0.226256 78 78 78
-1.919318 1.683197 0.313448 82 82 82
-0.958167 0.840290 -0.156480 4 4 4
-1.883192 1.651515 0.396718 79 79 79
-2.109124 1.849652 -0.245431 61 61 61
-1.855398 1.627141 0.479694 90 90 90
-2.064726 1.810716 -0.143924 67 67 67
-1.821170 1.597123 0.559228 75 75 75
-2.035672 1.785237 -0.047261 75 75 75
-1.792315 1.571818 0.638765 83 83 83
-1.997758 1.776812 0.046668 82 82 82
-1.974430 1.756065 0.138481 79 79 79
-1.938353 1.723977 0.226954 82 82 82
-0.687834 0.611762 -0.145797 4 4 4
-1.919387 1.707109 0.315398 86 86 86
-0.976010 0.868066 -0.160380 8 8 8
-1.880472 1.672498 0.398595 82 82 82
-2.111048 1.877573 -0.247174 64 64 64
-1.852796 1.647882 0.481984 86 86 86
-2.063974 1.835705 -0.144761 67 67 67
-1.821624 1.620159 0.562828 79 79 79
-2.032125 1.807378 -0.047471 74 74 74
-1.784185 1.586860 0.639801 83 83 83
-2.005229 1.783457 0.046842 86 86 86
-1.983385 1.764029 0.139109 89 89 89
-1.944308 1.729274 0.227651 70 70 70
-0.687834 0.611762 -0.145797 4 4 4
-1.916420 1.704471 0.314910 78 78 78
-0.973043 0.865428 -0.159893 9 9 9
-1.889328 1.680375 0.400472 77 77 77
-2.117003 1.882869 -0.247871 64 64 64
-1.846928 1.642664 0.480457 82 82 82
-2.068451 1.839687 -0.145075 65 65 65
-1.824537 1.622749 0.563727 82 82 82
-2.041090 1.815352 -0.047680 79 79 79
-1.792846 1.594563 0.642907 85 85 85
-2.004293 1.808477 0.047121 86 86 86
-1.970711 1.778176 0.139109 79 79 79
-1.945197 1.755155 0.229220 76 76 76
-1.907122 1.720800 0.315398 78 78 78
-0.962404 0.868379 -0.159161 20 20 20
-1.883122 1.699145 0.401724 79 79 79
-2.112350 1.905978 -0.248917 64 64 64
-1.843871 1.663729 0.482747 84 84 84
-2.061165 1.859793 -0.145494 65 65 65
-1.815771 1.638374 0.564627 82 82 82
-2.039925 1.840628 -0.047959 79 79 79
-1.792864 1.617705 0.647048 81 81 81
-2.014685 1.817855 0.047366 82 82 82
-1.976642 1.783528 0.139528 82 82 82
-1.951114 1.760494 0.229917 73 73 73
-1.918913 1.731439 0.317348 74 74 74
-0.949140 0.856411 -0.156968 71 71 71
-1.888989 1.704438 0.402975 77 77 77
-2.121226 1.913986 -0.249963 64 64 64
-1.858447 1.676881 0.486563 92 92 92
-2.078959 1.875849 -0.146750 61 61 61
-1.815771 1.638374 0.564627 82 82 82
-2.036955 1.837949 -0.047889 75 75 75
-1.798601 1.622881 0.649118 87 87 87
-2.011118 1.839624 0.047575 82 82 82
-1.976246 1.807726 0.140365 85 85 85
-1.939085 1.773734 0.229917 73 73 73
-0.679225 0.621306 -0.145797 4 4 4
-1.915871 1.752499 0.318810 74 74 74
-0.947682 0.866871 -0.157699 100 100 100
-1.877343 1.717257 0.402975 77 77 77
-2.114029 1.933760 -0.250660 66 66 66
-1.852785 1.694792 0.488089 90 90 90
-2.080880 1.903437 -0.147797 57 57 57
-1.818957 1.663849 0.569126 90 90 90
-2.036202 1.862569 -0.048169 75 75 75
-1.790364 1.637694 0.650153 81 81 81
-2.009643 1.838274 0.047540 74 74 74
-1.990983 1.821206 0.141412 82 82 82
-1.949376 1.783147 0.231137 78 78 78
-0.679225 0.621306 -0.145797 4 4 4
-1.924660 1.760538 0.320273 82 82 82
-0.949147 0.868211 -0.157943 100 100 100
-1.891919 1.730589 0.406104 74 74 74
-2.125790 1.944518 -0.252054 61 61 61
-1.852785 1.694792 0.488089 90 90 90
-2.089722 1.911525 -0.148425 61 61 61
-1.827584 1.671740 0.571826 87 87 87
-2.045055 1.870667 -0.048378 75 75 75
-1.793215 1.640302 0.651189 87 87 87
-2.006697 1.862129 0.047785 78 78 78
-1.986684 1.843558 0.142040 79 79 79
-1.945329 1.805182 0.232183 78 78 78
-0.692138 0.642274 -0.149551 3 3 3
-1.910557 1.772915 0.320029 69 69 69
-0.931269 0.864178 -0.155993 81 81 81
-1.896862 1.760207 0.409858 70 70 70
-2.114742 1.962390 -0.252403 64 64 64
-1.843488 1.710678 0.488853 92 92 92
-2.075990 1.926430 -0.148425 57 57 57
-1.821288 1.690078 0.573625 92 92 92
-2.046274 1.898855 -0.048727 77 77 77
-1.787095 1.658348 0.653259 81 81 81
-2.016958 1.871651 0.048029 69 69 69
-1.982292 1.839482 0.141726 76 76 76
-1.957013 1.816024 0.233577 78 78 78
-0.732681 0.679897 -0.158312 1 1 1
-1.914923 1.776966 0.320760 76 76 76
-0.918173 0.852026 -0.153799 53 53 53
-1.902654 1.765582 0.411110 72 72 72
-2.138109 1.984074 -0.255192 66 66 66
-1.852123 1.718691 0.491142 92 92 92
-2.081846 1.931864 -0.148843 59 59 59
-1.821288 1.690078 0.573625 87 87 87
-2.055069 1.907016 -0.048937 75 75 75
-1.801256 1.671489 0.658436 76 76 76
-2.019068 1.898686 0.048378 69 69 69
-1.975869 1.858062 0.142144 76 76 76
-1.953634 1.837153 0.234623 78 78 78
-0.781400 0.734811 -0.169888 1 1 1
-1.914664 1.800506 0.322710 82 82 82
-0.909610 0.855377 -0.153312 33 33 33
-1.890903 1.778162 0.411110 70 70 70
-2.130709 2.003670 -0.255889 64 64 64
-1.857846 1.747076 0.495722 90 90 90
-2.083538 1.959311 -0.149890 61 61 61
-1.818557 1.710130 0.576325 87 87 87
-2.042376 1.920604 -0.048937 77 77 77
-1.795760 1.688692 0.660506 87 87 87
-2.026352 1.905535 0.048553 63 63 63
-1.991874 1.873112 0.143296 79 79 79
-1.952183 1.835788 0.234449 73 73 73
-0.853353 0.802473 -0.185531 3 3 3
-1.927679 1.812746 0.324904 72 72 72
-0.902379 0.848577 -0.152093 12 12 12
-1.899537 1.786281 0.412987 70 70 70
-2.130709 2.003670 -0.255889 55 55 55
-1.866427 1.755145 0.498011 92 92 92
-2.098087 1.972993 -0.150937 63 63 63
-1.824236 1.715470 0.578124 90 90 90
-2.056944 1.934303 -0.049286 74 74 74
-1.801390 1.693986 0.662577 90 90 90
-2.015558 1.922747 0.048622 65 65 65
-1.991425 1.899725 0.144238 71 71 71
-1.944763 1.855211 0.235146 76 76 76
-0.856164 0.816740 -0.187408 6 6 6
-1.918967 1.830604 0.325635 85 85 85
-1.895282 1.808009 0.414864 65 65 65
-2.133616 2.035369 -0.257981 61 61 61
-1.853820 1.768456 0.498011 92 92 92
-2.089696 1.993471 -0.151356 63 63 63
-1.823194 1.739241 0.581723 84 84 84
-2.054625 1.960015 -0.049565 72 72 72
-1.786426 1.704166 0.661541 87 87 87
-2.019899 1.926888 0.048727 67 67 67
-2.002987 1.910754 0.145075 71 71 71
-1.960621 1.870339 0.237064 85 85 85
-0.867599 0.827648 -0.189911 8 8 8
-1.917531 1.829234 0.325391 80 80 80
-1.906717 1.818917 0.417367 70 70 70
-2.140825 2.042245 -0.258853 59 59 59
-1.853820 1.768456 0.498011 82 82 82
-2.095477 1.998985 -0.151774 67 67 67
-1.840115 1.755382 0.587122 90 90 90
-2.069094 1.973818 -0.049914 72 72 72
-1.797609 1.714833 0.665683 83 83 83
-2.019674 1.953103 0.049041 65 65 65
-1.985627 1.920179 0.144761 64 64 64
-1.957870 1.893336 0.238284 76 76 76
-0.864785 0.836281 -0.190537 4 4 4
-1.912170 1.849143 0.326610 82 82 82
-2.181872 2.109955 -0.372676 88 88 88
-1.902812 1.840093 0.419244 67 67 67
-2.141196 2.070620 -0.260596 59 59 59
-1.853030 1.791952 0.501064 90 90 90
-2.087564 2.018756 -0.152193 59 59 59
-1.822520 1.762448 0.585323 84 84 84
-2.069986 2.001757 -0.050263 70 70 70
-1.802559 1.743145 0.671894 83 83 83
-2.029736 1.962834 0.049286 69 69 69
-1.994241 1.928509 0.145389 64 64 64
-1.970760 1.905802 0.239853 82 82 82
-0.877565 0.848640 -0.193353 4 4 4
-1.929294 1.865703 0.329535 87 87 87
-2.190434 2.118235 -0.374139 67 67 67
-1.899972 1.837346 0.418619 67 67 67
-2.151222 2.080315 -0.261816 61 61 61
-1.872788 1.811059 0.506407 90 90 90
-2.104793 2.035417 -0.153449 65 65 65
-1.828124 1.767866 0.587122 82 82 82
-2.067111 1.998977 -0.050193 68 68 68
-1.816447 1.756574 0.677071 83 83 83
-0.826207 0.810213 -0.310065 0 0 0
-2.027406 1.988157 0.049565 71 71 71
-1.993564 1.954970 0.146331 68 68 68
-1.957407 1.919514 0.239853 82 82 82
-0.873030 0.856129 -0.193666 1 1 1
-1.927561 1.890245 0.331485 91 91 91
-2.192601 2.150154 -0.377064 65 65 65
-1.895561 1.858864 0.420496 70 70 70
-2.139492 2.098073 -0.262164 60 60 60
-1.868509 1.832337 0.508697 82 82 82
-2.101940 2.061249 -0.154286 63 63 63
-1.832433 1.796959 0.592521 84 84 84
-2.058816 2.018960 -0.050333 68 68 68
-1.795863 1.761097 0.673965 81 81 81
-0.813794 0.798039 -0.305406 0 0 0
-2.030261 1.990957 0.049635 67 67 67
-2.004972 1.966157 0.147169 73 73 73
-1.967365 1.929278 0.241073 73 73 73
-0.873030 0.856129 -0.193666 1 1 1
-1.934648 1.897195 0.332703 80 80 80
-2.201105 2.158493 -0.378526 65 65 65
-1.901202 1.864397 0.421747 67 67 67
-2.153717 2.112023 -0.263908 60 60 60
-1.874116 1.837835 0.510223 84 84 84
-2.113348 2.072436 -0.155124 63 63 63
-1.843564 1.807875 0.596120 84 84 84
-2.075949 2.035761 -0.050752 65 65 65
-1.804139 1.769213 0.677071 78 78 78
-0.797244 0.792804 -0.301265 0 0 0
-2.019148 2.007903 0.049704 69 69 69
-1.999694 1.988556 0.147797 73 73 73
-1.962325 1.951395 0.242119 76 76 76
-0.853025 0.848274 -0.190537 1 1 1
-1.922763 1.912054 0.332947 82 82 82
-2.198650 2.186405 -0.380720 68 68 68
-1.904948 1.894339 0.425502 67 67 67
-2.151635 2.139651 -0.265476 66 66 66
-1.861240 1.850874 0.510223 82 82 82
-2.101661 2.089956 -0.155333 61 61 61
-1.841953 1.831694 0.599720 82 82 82
-2.068776 2.057254 -0.050926 74 74 74
-1.802703 1.792662 0.681212 78 78 78
-0.808202 0.803701 -0.305406 0 0 0
-2.041835 2.030463 0.050263 71 71 71
-2.005359 1.994190 0.148215 76 76 76
-1.979278 1.968254 0.244210 73 73 73
-0.857227 0.852452 -0.191476 1 1 1
-1.931209 1.920453 0.334409 87 87 87
-2.202873 2.190604 -0.381451 67 67 67
-1.913353 1.902696 0.427379 70 70 70
-2.157286 2.145271 -0.266174 64 64 64
-1.872377 1.861949 0.513276 84 84 84
-2.112991 2.101223 -0.156170 63 63 63
-1.844716 1.834442 0.600619 82 82 82
-2.081538 2.069945 -0.051240 68 68 68
-1.819141 1.809009 0.687423 76 76 76
-0.809658 0.815900 -0.307995 0 0 0
-2.035367 2.051058 0.050437 78 78 78
-1.997716 2.013117 0.148634 73 73 73
-1.971794 1.986995 0.244908 73 73 73
-0.866860 0.873543 -0.194917 1 1 1
-1.932412 1.947309 0.336847 82 82 82
-2.199482 2.216438 -0.383401 65 65 65
-1.900692 1.915344 0.427379 67 67 67
-2.155641 2.172259 -0.267742 61 61 61
-1.876582 1.891048 0.517856 76 76 76
-2.115891 2.132202 -0.157427 59 59 59
-1.832509 1.846636 0.600619 75 75 75
-2.067764 2.083704 -0.051240 67 67 67
-1.815267 1.829261 0.690529 85 85 85
-0.793329 0.799445 -0.301783 0 0 0
-2.048044 2.063832 0.050752 71 71 71
-2.008971 2.024458 0.149471 73 73 73
-1.973197 1.988409 0.245082 67 67 67
-0.865469 0.872141 -0.194604 5 5 5
-1.944997 1.959991 0.339041 77 77 77
-2.214863 2.231938 -0.386082 63 63 63
-1.903474 1.918148 0.428005 70 70 70
-2.161255 2.177916 -0.268440 61 61 61
-1.884879 1.899410 0.520145 73 73 73
-2.131366 2.147797 -0.158578 55 55 55
-1.848981 1.863235 0.606018 75 75 75
-2.073398 2.089382 -0.051380 70 70 70
-1.815267 1.829261 0.690529 85 85 85
-0.785026 0.802202 -0.300748 0 0 0
-2.036383 2.080939 0.050821 71 71 71
-0.790526 0.807823 -0.260943 1 1 1
-2.008758 2.052709 0.150518 73 73 73
-1.970416 2.013528 0.246476 65 65 65
-0.860740 0.879573 -0.194917 20 20 20
-1.939596 1.982034 0.340503 72 72 72
-2.208946 2.257277 -0.387788 65 65 65
-1.901090 1.942685 0.430508 70 70 70
-2.155752 2.202919 -0.269660 66 66 66
-1.874319 1.915328 0.520909 73 73 73
-2.127495 2.174044 -0.159415 54 54 54
-1.841380 1.881669 0.607818 77 77 77
-2.072747 2.118098 -0.051729 74 74 74
-1.807857 1.847413 0.692600 85 85 85
-0.779622 0.796679 -0.298677 0 0 0
-2.044775 2.089514 0.051031 67 67 67
-0.790526 0.807823 -0.260943 1 1 1
-2.019933 2.064128 0.151356 73 73 73
-1.975990 2.019224 0.247174 67 67 67
-0.866267 0.885221 -0.196169 56 56 56
-1.942373 1.984872 0.340990 72 72 72
-2.224219 2.272884 -0.390469 71 71 71
-1.920432 1.962451 0.434888 65 65 65
-2.171081 2.218583 -0.271577 74 74 74
-1.874319 1.915328 0.520909 74 74 74
-2.130289 2.176899 -0.159625 54 54 54
-1.852284 1.892812 0.611417 73 73 73
-2.083936 2.129532 -0.052008 70 70 70
-1.821369 1.861220 0.697776 80 80 80
-0.784773 0.813224 -0.302818 0 0 0
-2.044024 2.118127 0.051380 69 69 69
-0.779454 0.807713 -0.259144 1 1 1
-2.008247 2.081054 0.151565 73 73 73
-1.970146 2.041572 0.248220 67 67 67
-0.873783 0.905461 -0.199298 86 86 86
-1.939497 2.009811 0.342940 72 72 72
-2.220703 2.301212 -0.392663 107 107 107
-1.917659 1.987181 0.437391 70 70 70
-2.167991 2.246589 -0.273146 66 66 66
-1.869082 1.936843 0.523198 73 73 73
-2.123361 2.200341 -0.160253 55 55 55
-1.839025 1.905697 0.611417 69 69 69
-2.082904 2.158418 -0.052357 76 76 76
-1.811014 1.876670 0.698811 83 83 83
-0.787456 0.816004 -0.303854 0 0 0
-2.059298 2.133956 0.051764 63 63 63
-0.784867 0.813322 -0.260943 1 1 1
-2.013795 2.086803 0.151984 73 73 73
-1.985365 2.057342 0.250137 76 76 76
-0.884757 0.916833 -0.201800 100 100 100
-1.953281 2.024095 0.345378 77 77 77
-2.230352 2.311211 -0.394369 116 116 116
-1.914915 1.984339 0.436765 65 65 65
-2.176292 2.255191 -0.274192 64 64 64
-1.879988 1.948145 0.526251 74 74 74
-2.134456 2.211839 -0.161090 56 56 56
-1.839025 1.905697 0.611417 79 79 79
-2.094013 2.169929 -0.052636 80 80 80
-1.821746 1.887791 0.702953 76 76 76
-0.769754 0.808886 -0.299195 0 0 0
-2.055378 2.159869 0.052043 63 63 63
-0.773796 0.813134 -0.259144 1 1 1
-2.015700 2.118173 0.153240 73 73 73
-1.973701 2.074039 0.250486 73 73 73
-0.878335 0.922987 -0.201800 100 100 100
-1.952788 2.052063 0.347815 77 77 77
-2.205952 2.318098 -0.392907 100 100 100
-1.909186 2.006245 0.438642 65 65 65
-2.171483 2.281876 -0.275586 64 64 64
-1.877169 1.972600 0.529304 76 76 76
-2.131354 2.239708 -0.162032 61 61 61
-1.836423 1.929783 0.615016 75 75 75
-2.087085 2.193187 -0.052846 78 78 78
-1.813849 1.906061 0.705023 73 73 73
-0.761763 0.800490 -0.296089 0 0 0
-2.055378 2.159869 0.052043 63 63 63
-0.775140 0.814546 -0.259594 1 1 1
-2.029468 2.132641 0.154286 68 68 68
-0.770086 0.809235 -0.217141 1 1 1
-1.977821 2.078369 0.251009 67 67 67
-2.173367 2.283856 -0.499339 33 33 33
-1.958261 2.057815 0.348790 77 77 77
-2.205952 2.318098 -0.392907 100 100 100
-1.922804 2.020555 0.441771 65 65 65
-2.179724 2.290536 -0.276632 66 66 66
-1.879876 1.975444 0.530067 78 78 78
-2.138239 2.246942 -0.162555 56 56 56
-1.847170 1.941076 0.618615 77 77 77
-2.100870 2.207673 -0.053195 76 76 76
-1.816513 1.908860 0.706058 77 77 77
-0.766875 0.816924 -0.300230 0 0 0
-2.048841 2.182557 0.052253 63 63 63
-0.770911 0.821224 -0.260043 1 1 1
-2.027207 2.159512 0.155228 66 66 66
-0.761872 0.811596 -0.216377 1 1 1
-1.981356 2.110668 0.253275 73 73 73
-2.155067 2.295716 -0.498713 90 90 90
-1.948285 2.075438 0.349521 75 75 75
-2.187405 2.330165 -0.392419 97 97 97
-1.925230 2.050878 0.445525 65 65 65
-2.183173 2.325656 -0.279073 76 76 76
-1.869073 1.991057 0.530831 78 78 78
-2.129730 2.268725 -0.163079 61 61 61
-1.847253 1.967812 0.623114 75 75 75
-2.104955 2.242333 -0.053684 76 76 76
-1.811411 1.929631 0.709164 81 81 81
-0.781419 0.832418 -0.305924 0 0 0
-2.069370 2.204427 0.052776 77 77 77
-0.765576 0.815541 -0.258244 1 1 1
-2.027207 2.159512 0.155228 66 66 66
-0.772622 0.823047 -0.219430 1 1 1
-1.994992 2.125194 0.255018 73 73 73
-2.159123 2.300037 -0.499652 95 95 95
-1.957795 2.085570 0.351227 77 77 77
-2.177894 2.320033 -0.390713 100 100 100
-1.931989 2.058080 0.447090 61 61 61
-2.210446 2.354709 -0.282559 119 119 119
-1.879823 2.002508 0.533884 78 78 78
-2.135197 2.274550 -0.163498 63 63 63
-1.847253 1.967812 0.623114 79 79 79
-2.118641 2.256913 -0.054033 71 71 71
-1.824633 1.943716 0.714341 81 81 81
-0.750654 0.810917 -0.296089 0 0 0
-2.060722 2.226157 0.052951 68 68 68
-0.759864 0.820866 -0.258244 1 1 1
-2.022936 2.185337 0.156066 61 61 61
-0.761523 0.822657 -0.217904 1 1 1
-1.992288 2.152229 0.256587 70 70 70
-2.134962 2.306357 -0.497774 90 90 90
-1.960718 2.118125 0.354396 83 83 83
-2.158948 2.332268 -0.390226 100 100 100
-1.920258 2.074416 0.447715 60 60 60
-2.199367 2.375932 -0.283256 115 115 115
-1.881801 2.032872 0.538463 79 79 79
-2.132834 2.304058 -0.164544 57 57 57
-1.838765 1.986381 0.624914 77 77 77
-2.096041 2.264311 -0.053858 68 68 68
-1.813643 1.959242 0.715376 83 83 83
-0.746717 0.806664 -0.294536 0 0 0
-2.072948 2.239364 0.053265 75 75 75
-0.782369 0.845177 -0.265892 1 1 1
-2.037860 2.201460 0.157217 76 76 76
-0.764190 0.825539 -0.218667 1 1 1
-1.986874 2.146380 0.255889 67 67 67
-2.132278 2.303457 -0.497149 95 95 95
-1.967461 2.125408 0.355615 77 77 77
-2.162993 2.336638 -0.390957 97 97 97
-1.925626 2.080215 0.448967 56 56 56
-2.189893 2.365697 -0.282036 110 110 110
-1.897805 2.050160 0.543042 79 79 79
-2.157256 2.330440 -0.166428 59 59 59
-1.854651 2.003542 0.630313 77 77 77
-2.106909 2.276051 -0.054137 68 68 68
-1.818893 1.964913 0.717446 81 81 81
-0.731951 0.801869 -0.290913 0 0 0
-2.055916 2.252305 0.053230 70 70 70
-0.759370 0.831908 -0.260043 1 1 1
-2.037253 2.231859 0.158369 79 79 79
-0.763702 0.836654 -0.220194 1 1 1
-1.979901 2.169028 0.256935 68 68 68
-2.105491 2.306616 -0.494646 95 95 95
-1.961943 2.149355 0.357321 75 75 75
-2.143951 2.348749 -0.390469 93 93 93
-1.921710 2.105279 0.451470 56 56 56
-2.165264 2.372098 -0.280990 100 100 100
-1.888740 2.069160 0.544569 79 79 79
-2.154399 2.360195 -0.167475 61 61 61
-1.856384 2.033712 0.635712 82 82 82
-2.104449 2.305474 -0.054486 70 70 70
-1.810340 1.983271 0.719517 80 80 80
-0.741067 0.811857 -0.294536 0 0 0
-2.064005 2.261166 0.053439 73 73 73
-0.761998 0.834786 -0.260943 1 1 1
-2.039946 2.234809 0.158578 68 68 68
-0.758408 0.830854 -0.218667 1 1 1
-1.998706 2.189629 0.259375 67 67 67
-2.105491 2.306616 -0.494646 95 95 95
-1.967296 2.155219 0.358296 80 80 80
-2.141275 2.345817 -0.389982 97 97 97
-1.935028 2.119869 0.454599 58 58 58
-2.163921 2.370627 -0.280816 91 91 91
-1.894034 2.074960 0.546095 78 78 78
-2.154399 2.360195 -0.167475 74 74 74
-1.869522 2.048105 0.640211 79 79 79
-2.117930 2.320243 -0.054835 68 68 68
-1.833784 2.008953 0.728834 87 87 87
-0.744573 0.826932 -0.298160 0 0 0
-2.065961 2.294482 0.053893 77 77 77
-0.740650 0.822575 -0.255544 1 1 1
-2.038051 2.263485 0.159625 79 79 79
-0.742226 0.824325 -0.215614 1 1 1
-1.997087 2.217990 0.261119 67 67 67
-2.087099 2.317958 -0.494020 95 95 95
-1.961878 2.178887 0.360002 77 77 77
-2.109318 2.342635 -0.387057 93 93 93
-1.925841 2.138863 0.455850 61 61 61
-2.145068 2.382340 -0.280467 91 91 91
-1.893004 2.102394 0.549912 76 76 76
-2.154321 2.392615 -0.168731 116 116 116
-1.852930 2.057887 0.639311 72 72 72
-2.114131 2.347980 -0.055150 72 72 72
-1.830408 2.032874 0.732976 81 81 81
-0.741987 0.824061 -0.297124 0 0 0
-2.078003 2.307856 0.054207 70 70 70
-0.736738 0.818231 -0.254195 1 1 1
-2.046070 2.272391 0.160253 79 79 79
-0.747480 0.830161 -0.217141 1 1 1
-2.009085 2.231315 0.262687 71 71 71
-2.087099 2.317958 -0.494020 95 95 95
-1.971176 2.189213 0.361708 75 75 75
-2.109318 2.342635 -0.387057 90 90 90
-1.931128 2.144735 0.457102 57 57 57
-2.142402 2.379379 -0.280119 91 91 91
-1.906140 2.116983 0.553728 73 73 73
-2.163676 2.403005 -0.169464 103 103 103
-1.860753 2.066576 0.642010 77 77 77
-2.120821 2.355410 -0.055324 75 75 75
-1.838164 2.041488 0.736081 77 77 77
-0.725956 0.817663 -0.292983 0 0 0
-2.077773 2.340252 0.054626 73 73 73
-0.734890 0.827726 -0.255544 1 1 1
-2.042090 2.300062 0.161195 73 73 73
-0.752094 0.847104 -0.220194 1 1 1
-1.996105 2.248267 0.263036 68 68 68
-2.068242 2.329517 -0.493394 97 97 97
-1.972978 2.222219 0.364877 67 67 67
-2.088958 2.352850 -0.386326 86 86 86
-1.921354 2.164073 0.458353 61 61 61
-2.115156 2.382358 -0.278724 91 91 91
-1.896529 2.136111 0.555254 64 64 64
-2.149499 2.421039 -0.169673 97 97 97
-1.859219 2.094089 0.646509 75 75 75
-2.105653 2.371654 -0.055359 76 76 76
-1.828998 2.060049 0.738152 77 77 77
-0.720825 0.811885 -0.290913 0 0 0
-2.080428 2.343242 0.054696 68 68 68
-0.733596 0.826269 -0.255094 1 1 1
-2.052699 2.312010 0.162032 76 76 76
-0.741666 0.835359 -0.217141 1 1 1
-2.004041 2.257206 0.264082 67 67 67
-2.061685 2.322132 -0.491830 100 100 100
-1.976932 2.226672 0.365608 77 77 77
-2.086322 2.349882 -0.385838 86 86 86
-1.937092 2.181799 0.462107 60 60 60
-2.107220 2.373419 -0.277678 88 88 88
-1.899135 2.139048 0.556017 65 65 65
-2.142869 2.413571 -0.169150 83 83 83
-1.866982 2.102832 0.649209 75 75 75
-2.126896 2.395580 -0.055918 82 82 82
-1.836693 2.068717 0.741258 81 81 81
-0.711322 0.812537 -0.289360 0 0 0
-2.074556 2.369746 0.054975 66 66 66
-0.732944 0.837235 -0.256894 1 1 1
-2.052295 2.344317 0.163288 73 73 73
-0.728058 0.831653 -0.214851 1 1 1
-2.001358 2.286133 0.265825 65 65 65
-2.040219 2.330523 -0.490578 100 100 100
-1.965262 2.244900 0.366339 68 68 68
-2.069866 2.364389 -0.385838 86 86 86
-1.932222 2.207160 0.464610 58 58 58
-2.090599 2.388072 -0.277678 88 88 88
-1.886742 2.155208 0.556781 67 67 67
-2.120704 2.422461 -0.168731 83 83 83
-1.865092 2.130477 0.653708 72 72 72
-2.125926 2.428425 -0.056336 100 100 100
-1.832386 2.093118 0.745399 77 77 77
-0.730409 0.834340 -0.297124 0 0 0
-2.095631 2.393820 0.055534 75 75 75
-0.718824 0.821106 -0.251945 1 1 1
-2.053610 2.345820 0.163393 70 70 70
-0.740989 0.846425 -0.218667 1 1 1
-2.018419 2.305621 0.268091 70 70 70
-2.040219 2.330523 -0.490578 100 100 100
-1.971800 2.252368 0.367558 71 71 71
-2.060714 2.353934 -0.384132 97 97 97
-1.950439 2.227968 0.468991 57 57 57
-2.093224 2.391070 -0.278027 93 93 93
-1.899674 2.169980 0.560597 70 70 70
-2.115442 2.416450 -0.168312 85 85 85
-1.870226 2.136342 0.655507 67 67 67
-2.144366 2.449490 -0.056825 109 109 109
-1.845111 2.107653 0.750575 76 76 76
-0.717138 0.830519 -0.294018 0 0 0
-2.098892 2.430732 0.056057 73 73 73
-0.710671 0.823030 -0.251045 1 1 1
-2.048038 2.371838 0.164230 68 68 68
-0.730078 0.845506 -0.217141 1 1 1
-2.022210 2.341927 0.270706 75 75 75
-2.021726 2.341366 -0.489953 100 100 100
-1.971991 2.283768 0.370483 77 77 77
-2.042049 2.364901 -0.383645 97 97 97
-1.937810 2.244183 0.469616 68 68 68
-2.074295 2.402247 -0.277678 88 88 88
-1.900257 2.200692 0.565176 70 70 70
-2.093724 2.424747 -0.167894 85 85 85
-1.858189 2.151973 0.656407 66 66 66
-2.123723 2.459489 -0.056720 103 103 103
-1.833247 2.123088 0.751611 72 72 72
-0.709563 0.821746 -0.290913 0 0 0
-2.105426 2.438299 0.056232 78 78 78
-0.727228 0.842205 -0.256894 1 1 1
-2.059786 2.385443 0.165172 66 66 66
-0.740343 0.857393 -0.220194 1 1 1
-2.022210 2.341927 0.270706 81 81 81
-2.021726 2.341366 -0.489953 100 100 100
-1.984965 2.298792 0.372920 71 71 71
-2.039454 2.361896 -0.383157 97 97 97
-1.953302 2.262124 0.473371 64 64 64
-2.063878 2.390183 -0.276284 95 95 95
-1.910521 2.212579 0.568229 70 70 70
-2.093724 2.424747 -0.167894 85 85 85
-1.867104 2.162298 0.659556 61 61 61
-2.121109 2.456462 -0.056651 100 100 100
-1.834510 2.124550 0.752128 71 71 71
-0.698799 0.820796 -0.288842 0 0 0
-2.096130 2.462074 0.056441 78 78 78
-0.718804 0.844293 -0.255994 1 1 1
-2.057324 2.416493 0.166324 70 70 70
-0.741975 0.871510 -0.222483 1 1 1
-2.003228 2.352953 0.270357 71 71 71
-1.995087 2.343390 -0.487450 100 100 100
-1.984310 2.330732 0.375845 77 77 77
-2.020341 2.373054 -0.382670 93 93 93
-1.945146 2.284730 0.475248 65 65 65
-2.039392 2.395431 -0.275238 93 93 93
-1.897574 2.228853 0.568992 70 70 70
-2.076745 2.439304 -0.167894 83 83 83
-1.867122 2.193086 0.664955 67 67 67
-2.101316 2.468164 -0.056581 100 100 100
-1.835913 2.156428 0.758857 70 70 70
-0.706313 0.829622 -0.291948 0 0 0
-2.109093 2.477300 0.056790 102 102 102
-0.703645 0.826488 -0.250595 1 1 1
-2.071566 2.433221 0.167475 73 73 73
-0.749612 0.880479 -0.224773 1 1 1
-2.018727 2.371158 0.272449 67 67 67
-1.987403 2.334366 -0.485573 100 100 100
-1.985597 2.332243 0.376089 79 79 79
-2.017768 2.370031 -0.382182 93 93 93
-1.960512 2.302779 0.479002 63 63 63
-2.039392 2.395431 -0.275238 95 95 95
-1.907755 2.240812 0.572045 68 68 68
-2.068977 2.430180 -0.167266 85 85 85
-1.873439 2.200505 0.667205 66 66 66
-2.092241 2.457506 -0.056336 100 100 100
-1.838418 2.159370 0.759893 68 68 68
-0.693052 0.825654 -0.288842 0 0 0
-2.108461 2.511875 0.057244 117 117 117
-0.697858 0.831380 -0.250595 1 1 1
-2.059665 2.453743 0.167894 73 73 73
-0.742184 0.884187 -0.224391 3 3 3
-2.023900 2.411136 0.275412 70 70 70
-1.971058 2.348183 -0.485573 100 100 100
-1.983305 2.362773 0.378770 82 82 82
-1.998620 2.381019 -0.381695 93 93 93
-1.955818 2.330027 0.481818 58 58 58
-2.025181 2.412662 -0.275586 93 93 93
-1.902163 2.266106 0.575098 76 76 76
-2.041688 2.432327 -0.166428 83 83 83
-1.864295 2.220993 0.669454 64 64 64
-2.072463 2.468989 -0.056267 100 100 100
-1.836960 2.188428 0.765587 71 71 71
-0.695536 0.828614 -0.289877 0 0 0
-2.103318 2.505749 0.057104 118 118 118
-0.697858 0.831380 -0.250595 1 1 1
-2.069938 2.465981 0.168731 76 76 76
-0.747233 0.890202 -0.225918 4 4 4
-2.035429 2.424870 0.276981 65 65 65
-1.971058 2.348183 -0.485573 100 100 100
-1.989686 2.370376 0.379989 74 74 74
-1.990963 2.371896 -0.380232 97 97 97
-1.954548 2.328514 0.481505 56 56 56
-2.020057 2.406558 -0.274889 93 93 93
-1.917309 2.284150 0.579678 75 75 75
-2.041688 2.432327 -0.166428 85 85 85
-1.870560 2.228456 0.671704 66 66 66
-2.062177 2.456736 -0.055987 100 100 100
-1.848139 2.201745 0.770245 68 68 68
-0.687271 0.830473 -0.288842 0 0 0
-2.079399 2.512669 0.056930 118 118 118
-0.704461 0.851245 -0.255094 1 1 1
-2.073045 2.504991 0.170406 76 76 76
-0.756020 0.913547 -0.230497 7 7 7
-2.020991 2.442091 0.277330 66 66 66
-1.954617 2.361887 -0.485573 100 100 100
-1.988277 2.402560 0.382913 74 74 74
-1.973090 2.384208 -0.379989 100 100 100
-1.945801 2.351234 0.483382 58 58 58
-1.993045 2.408322 -0.273495 91 91 91
-1.913833 2.312605 0.583494 76 76 76
-2.024657 2.446521 -0.166428 87 87 87
-1.871108 2.260978 0.677553 75 75 75
-2.042426 2.467992 -0.055918 100 100 100
-1.836418 2.219059 0.771798 73 73 73
-0.690966 0.834938 -0.290395 0 0 0
-2.076849 2.509587 0.056860 110 110 110
-0.704461 0.851245 -0.255094 2 2 2
-2.089599 2.524994 0.171767 93 93 93
-0.759775 0.918084 -0.231642 9 9 9
-2.032424 2.455905 0.278898 63 63 63
-1.947060 2.352756 -0.483695 100 100 100
-2.000933 2.417853 0.385351 74 74 74
-1.975621 2.387267 -0.380476 100 100 100
-1.959655 2.367974 0.486824 64 64 64
-1.987964 2.402182 -0.272797 100 100 100
-1.916337 2.315630 0.584257 75 75 75
-2.024657 2.446521 -0.166428 83 83 83
-1.887260 2.280495 0.683401 75 75 75
-2.039876 2.464911 -0.055848 100 100 100
-1.842576 2.226500 0.774387 76 76 76
-0.698554 0.856207 -0.296089 0 0 0
-2.052958 2.516278 0.056685 100 100 100
-0.688646 0.844062 -0.251495 3 3 3
-2.083284 2.553449 0.172709 109 109 109
-0.769482 0.943142 -0.236603 9 9 9
-2.027824 2.485472 0.280641 63 63 63
-1.923095 2.357108 -0.481818 100 100 100
-1.992789 2.442530 0.387057 71 71 71
-1.957652 2.399463 -0.380232 97 97 97
-1.953065 2.393842 0.489327 58 58 58
-1.972405 2.417546 -0.272972 99 99 99
-1.912535 2.344164 0.588073 71 71 71
-1.994902 2.445120 -0.165382 85 85 85
-1.881149 2.305694 0.687001 77 77 77
-2.025147 2.482191 -0.055918 100 100 100
-1.841642 2.257272 0.780598 75 75 75
-0.702218 0.860697 -0.297642 1 1 1
-2.055486 2.519377 0.056755 102 102 102
-0.686182 0.841042 -0.250595 4 4 4
-2.080759 2.550353 0.172499 119 119 119
-0.769482 0.943142 -0.236603 6 6 6
-2.046717 2.508628 0.283256 66 66 66
-1.924344 2.358638 -0.482131 100 100 100
-1.997809 2.448683 0.388032 71 71 71
-1.946358 2.385620 -0.378039 100 100 100
-1.970548 2.415270 0.493707 64 64 64
-1.971146 2.416002 -0.272797 95 95 95
-1.922464 2.356333 0.591126 68 68 68
-1.989852 2.438930 -0.164963 87 87 87
-1.886076 2.311734 0.688800 75 75 75
-2.020090 2.475993 -0.055778 100 100 100
-1.856297 2.275234 0.786810 74 74 74
-0.697403 0.867084 -0.298160 0 0 0
-2.041607 2.538340 0.056860 107 107 107
-0.688843 0.856442 -0.253745 1 1 1
-2.054141 2.553923 0.171767 114 114 114
-0.748113 0.930133 -0.232024 3 3 3
-2.041640 2.538381 0.284999 66 66 66
-1.909069 2.373554 -0.482444 100 100 100
-1.993107 2.478039 0.390469 63 63 63
-1.924679 2.392963 -0.377064 100 100 100
-1.958591 2.435125 0.494959 64 64 64
-1.946739 2.420389 -0.271752 93 93 93
-1.918271 2.384996 0.594942 67 67 67
-1.971525 2.451206 -0.164858 90 90 90
-1.882105 2.340030 0.693299 73 73 73
-1.993982 2.479128 -0.055534 100 100 100
-1.850054 2.300181 0.790951 72 72 72
-0.701035 0.871600 -0.299712 0 0 0
-2.037847 2.533665 0.056755 102 102 102
-0.691286 0.859479 -0.254645 1 1 1
-2.055393 2.555480 0.171871 100 100 100
-0.727196 0.904126 -0.225536 1 1 1
-2.047884 2.546144 0.285871 86 86 86
-1.907831 2.372015 -0.482131 100 100 100
-2.006792 2.495054 0.393151 68 68 68
-1.927167 2.396056 -0.377551 100 100 100
-1.964781 2.442821 0.496523 60 60 60
-1.934251 2.404864 -0.270008 93 93 93
-1.928115 2.397234 0.597995 72 72 72
-1.972777 2.452762 -0.164963 85 85 85
-1.885769 2.344586 0.694649 70 70 70
-1.987716 2.471337 -0.055359 100 100 100
-1.852476 2.303192 0.791986 68 68 68
-0.738466 0.930711 -0.318347 0 0 0
-2.006084 2.528327 0.056336 106 106 106
-0.694049 0.874731 -0.257794 1 1 1
-2.038399 2.569055 0.171871 104 104 104
-0.735827 0.927384 -0.230116 1 1 1
-2.048290 2.581521 0.288311 100 100 100
-1.877323 2.366047 -0.478377 100 100 100
-2.005006 2.526969 0.396075 74 74 74
-1.911234 2.408785 -0.377551 100 100 100
-1.963270 2.474368 0.500277 58 58 58
-1.920736 2.420761 -0.270357 93 93 93
-1.919495 2.419197 0.600285 68 68 68
-1.953983 2.462663 -0.164754 85 85 85
-1.881079 2.370780 0.698698 65 65 65
-1.972525 2.486032 -0.055394 100 100 100
-1.846766 2.327534 0.796127 70 70 70
-0.719254 0.906497 -0.310065 0 0 0
-2.004841 2.526761 0.056301 100 100 100
-0.671035 0.845726 -0.249246 1 1 1
-2.028468 2.556539 0.171034 100 100 100
-2.060674 2.597128 0.290054 120 120 120
-1.872412 2.359857 -0.477125 100 100 100
-2.005006 2.526969 0.396075 68 68 68
-1.913701 2.411895 -0.378039 100 100 100
-1.978004 2.492937 0.504032 57 57 57
-1.920736 2.420761 -0.270357 95 95 95
-1.924376 2.425349 0.601812 71 71 71
-1.944052 2.450146 -0.163916 85 85 85
-1.890769 2.382993 0.702297 62 62 62
-1.976254 2.490731 -0.055499 100 100 100
-1.858773 2.342667 0.801304 68 68 68
-0.704420 0.900968 -0.306442 0 0 0
-1.986709 2.541042 0.056301 100 100 100
-0.672168 0.859717 -0.251945 1 1 1
-2.008892 2.569415 0.170929 100 100 100
-1.838045 2.350898 -0.580059 90 90 90
-2.043264 2.613377 0.290229 109 109 109
-1.863995 2.384088 -0.479315 100 100 100
-1.996654 2.553763 0.398025 64 64 64
-1.881721 2.406761 -0.375114 100 100 100
-1.971065 2.521033 0.506848 55 55 55
-1.905819 2.437583 -0.270706 95 95 95
-1.916645 2.451430 0.604865 75 75 75
-1.919088 2.454554 -0.163288 85 85 85
-1.880870 2.405673 0.704997 65 65 65
-1.952221 2.496932 -0.055324 100 100 100
-1.853861 2.371127 0.806480 70 70 70
-0.697280 0.891836 -0.303336 1 1 1
-1.987940 2.542618 0.056336 106 106 106
-0.715379 0.914985 -0.268142 1 1 1
-2.008892 2.569415 0.170929 100 100 100
-1.829580 2.340072 -0.577388 96 96 96
-2.038355 2.607099 0.289531 103 103 103
-1.859128 2.377864 -0.478064 100 100 100
-2.018663 2.581912 0.402413 79 79 79
-1.879276 2.403633 -0.374626 100 100 100
-1.973498 2.524146 0.507473 54 54 54
-1.905819 2.437583 -0.270706 100 100 100
-1.931156 2.469990 0.609444 75 75 75
-1.920318 2.456128 -0.163393 93 93 93
-1.888072 2.414884 0.707696 66 66 66
-1.944831 2.487480 -0.055115 100 100 100
-1.863380 2.383303 0.810621 71 71 71
-0.682937 0.885852 -0.299712 1 1 1
-1.966924 2.551339 0.056232 100 100 100
-0.742449 0.963047 -0.280739 1 1 1
-1.988917 2.579866 0.170720 100 100 100
-1.811212 2.349361 -0.576625 100 100 100
-2.004748 2.600400 0.287265 100 100 100
-1.842899 2.390463 -0.478064 100 100 100
-2.015586 2.614458 0.405337 85 85 85
-1.862871 2.416369 -0.374626 100 100 100
-1.969538 2.554729 0.510915 58 58 58
-1.878234 2.436297 -0.269137 99 99 99
-1.928683 2.501735 0.614023 75 75 75
-1.899897 2.464397 -0.163079 85 85 85
-1.887059 2.447743 0.713545 71 71 71
-1.924192 2.495909 -0.055010 100 100 100
-1.851833 2.402051 0.812692 68 68 68
-0.674680 0.875142 -0.296089 0 0 0
-1.957157 2.538669 0.055952 100 100 100
-0.713894 0.926006 -0.269941 1 1 1
-1.988917 2.579866 0.170720 100 100 100
-1.808815 2.346252 -0.575862 100 100 100
-1.999882 2.594089 0.286568 98 98 98
-1.835663 2.381076 -0.476187 100 100 100
-2.033766 2.638040 0.408994 100 100 100
-1.865295 2.419514 -0.375114 100 100 100
-1.979187 2.567245 0.513418 56 56 56
-1.870936 2.426830 -0.268091 99 99 99
-1.935875 2.511064 0.616313 72 72 72
-1.902336 2.467560 -0.163288 87 87 87
-1.896577 2.460090 0.717144 66 66 66
-1.924192 2.495909 -0.055010 100 100 100
-1.854192 2.405111 0.813727 71 71 71
-0.666370 0.876638 -0.295054 2 2 2
-1.936201 2.547156 0.055848 102 102 102
-0.719367 0.946358 -0.274440 1 1 1
-1.971310 2.593344 0.170720 100 100 100
-1.795179 2.361635 -0.576625 100 100 100
-1.995441 2.625089 0.288486 100 100 100
-1.817022 2.390371 -0.475561 100 100 100
-2.019366 2.656564 0.409725 103 103 103
-1.846381 2.428994 -0.374626 100 100 100
-1.976011 2.599528 0.517172 58 58 58
-1.855579 2.441095 -0.268265 95 95 95
-1.928243 2.536687 0.619366 75 75 75
-1.878244 2.470912 -0.162660 85 85 85
-1.895119 2.493111 0.722993 67 67 67
-1.907158 2.508949 -0.055010 100 100 100
-1.854145 2.439207 0.820974 75 75 75
-0.672215 0.884328 -0.297642 2 2 2
-1.932571 2.542381 0.055743 100 100 100
-0.683988 0.899816 -0.260943 1 1 1
-1.961641 2.580624 0.169883 100 100 100
-1.795179 2.361635 -0.576625 100 100 100
-1.988207 2.615572 0.287440 100 100 100
-1.817022 2.390371 -0.475561 100 100 100
-2.018165 2.654983 0.409481 100 100 100
-1.836770 2.416351 -0.372676 100 100 100
-1.987965 2.615255 0.520301 60 60 60
-1.860402 2.447439 -0.268963 100 100 100
-1.942500 2.555443 0.623945 71 71 71
-1.873410 2.464551 -0.162241 85 85 85
-1.897477 2.496214 0.723892 65 65 65
-1.904738 2.505765 -0.054940 100 100 100
-1.865835 2.454587 0.826150 72 72 72
-0.665715 0.889232 -0.297642 3 3 3
-1.916279 2.559680 0.055813 100 100 100
-0.712410 0.951606 -0.274440 1 1 1
-1.937884 2.588539 0.169464 102 102 102
-1.766053 2.359015 -0.572809 100 100 100
-1.968980 2.630076 0.287440 97 97 97
-1.795899 2.398882 -0.474622 100 100 100
-1.999838 2.671295 0.409725 100 100 100
-1.816629 2.426572 -0.372189 100 100 100
-1.977028 2.640826 0.522491 64 64 64
-1.838829 2.456226 -0.268440 100 100 100
-1.937834 2.588473 0.628525 71 71 71
-1.855293 2.478218 -0.162241 85 85 85
-1.893143 2.528776 0.729291 65 65 65
-1.879128 2.510055 -0.054731 100 100 100
-1.864001 2.489849 0.833397 72 72 72
-0.670346 0.895418 -0.299712 5 5 5
-1.917478 2.561281 0.055848 102 102 102
-0.712410 0.951606 -0.274440 1 1 1
-1.937884 2.588539 0.169464 100 100 100
-1.766053 2.359015 -0.572809 100 100 100
-1.964204 2.623696 0.286742 100 100 100
-1.799451 2.403626 -0.475561 100 100 100
-1.991511 2.660171 0.408019 96 96 96
-1.816629 2.426572 -0.372189 100 100 100
-1.993602 2.662965 0.526871 79 79 79
-1.825695 2.438682 -0.266522 93 93 93
-1.951953 2.607332 0.633104 63 63 63
-1.857687 2.481416 -0.162451 87 87 87
-1.904822 2.544376 0.733790 65 65 65
-1.874334 2.503652 -0.054591 100 100 100
-1.864001 2.489849 0.833397 68 68 68
-0.660637 0.895412 -0.298160 6 6 6
-1.886491 2.556905 0.055464 100 100 100
-0.705750 0.956556 -0.274440 1 1 1
-1.922137 2.605219 0.169673 100 100 100
-1.749541 2.371287 -0.572809 100 100 100
-1.938742 2.627725 0.285697 100 100 100
-1.769726 2.398645 -0.472119 100 100 100
-1.970534 2.670815 0.407531 96 96 96
-1.797287 2.436000 -0.371701 100 100 100
-1.986691 2.692713 0.530000 100 100 100
-1.809808 2.452971 -0.266697 100 100 100
-1.938366 2.627215 0.634631 65 65 65
-1.837947 2.491110 -0.162241 87 87 87
-1.900896 2.576430 0.739189 62 62 62
-1.857997 2.518285 -0.054626 100 100 100
-1.855749 2.515238 0.837538 70 70 70
-0.673254 0.912512 -0.303854 6 6 6
-1.880555 2.548859 0.055289 100 100 100
-0.698808 0.947148 -0.271741 1 1 1
-1.917394 2.598790 0.169254 100 100 100
-1.751872 2.374446 -0.573572 100 100 100
-1.941108 2.630932 0.286045 100 100 100
-1.767381 2.395466 -0.471493 97 97 97
-1.961105 2.658036 0.405581 100 100 100
-1.797287 2.436000 -0.371701 100 100 100
-1.994900 2.703840 0.532190 102 102 102
-1.810991 2.454574 -0.266871 93 93 93
-1.943028 2.633534 0.636157 67 67 67
-1.836761 2.489503 -0.162137 93 93 93
-1.912466 2.592111 0.743688 60 60 60
-1.859185 2.519895 -0.054661 100 100 100
-1.874100 2.540110 0.845821 67 67 67
-0.692192 0.951324 -0.315242 0 0 0
-1.865962 2.564509 0.055359 100 100 100
-0.717735 0.986428 -0.281639 1 1 1
-1.890715 2.598529 0.168417 100 100 100
-1.736086 2.386013 -0.573572 100 100 100
-1.918928 2.637303 0.285348 100 100 100
-1.752617 2.408732 -0.471806 100 100 100
-1.936426 2.661353 0.404119 100 100 100
-1.774084 2.438236 -0.370239 100 100 100
-1.974599 2.713817 0.531564 100 100 100
-1.793500 2.464920 -0.266697 99 99 99
-1.939380 2.665413 0.640737 63 63 63
-1.809634 2.487095 -0.161195 83 83 83
-1.898672 2.609465 0.745038 60 60 60
-1.842431 2.532170 -0.054661 100 100 100
-1.870851 2.571229 0.852032 66 66 66
-0.733110 1.007559 -0.333877 0 0 0
-1.869491 2.569360 0.055464 100 100 100
-1.706053 2.344737 -0.669454 1 1 1
-1.886015 2.592069 0.167998 100 100 100
-1.726845 2.373313 -0.570519 100 100 100
-1.921272 2.640526 0.285697 100 100 100
-1.750292 2.405537 -0.471181 100 100 100
-1.942266 2.669378 0.405337 100 100 100
-1.771748 2.435025 -0.369752 100 100 100
-1.966464 2.702636 0.529374 92 92 92
-1.791155 2.461698 -0.266348 99 99 99
-1.957861 2.690813 0.646842 72 72 72
-1.810809 2.488710 -0.161299 97 97 97
-1.904405 2.617344 0.747287 60 60 60
-1.830666 2.516000 -0.054312 100 100 100
-1.879944 2.583726 0.856173 66 66 66
-0.725881 1.012780 -0.333877 0 0 0
-1.845233 2.574545 0.055289 100 100 100
-0.703846 0.982035 -0.278939 1 1 1
-1.867418 2.605499 0.167998 100 100 100
-1.705243 2.379226 -0.568992 100 100 100
-1.893043 2.641251 0.284302 100 100 100
-1.733034 2.418000 -0.471181 100 100 100
-1.921958 2.681595 0.405094 100 100 100
-1.754278 2.447641 -0.369752 100 100 100
-1.944773 2.713427 0.528748 87 87 87
-1.767691 2.466355 -0.265476 95 95 95
-1.955712 2.728690 0.652567 92 92 92
-1.792954 2.501604 -0.161299 90 90 90
-1.899250 2.649911 0.752686 63 63 63
-1.810285 2.525785 -0.054242 100 100 100
-1.863658 2.600253 0.857209 66 66 66
-0.730383 1.019060 -0.335947 0 0 0
-1.838243 2.564793 0.055080 96 96 96
-0.724280 1.010546 -0.287038 1 1 1
-1.869745 2.608746 0.168208 100 100 100
-1.705243 2.379226 -0.568992 100 100 100
-1.886079 2.631534 0.283256 100 100 100
-1.726129 2.408367 -0.469303 100 100 100
-1.919645 2.678368 0.404606 100 100 100
-1.751965 2.444414 -0.369264 100 100 100
-1.942471 2.710216 0.528123 88 88 88
-1.763048 2.459877 -0.264779 95 95 95
-1.959143 2.733477 0.653712 105 105 105
-1.791791 2.499980 -0.161195 83 83 83
-1.912872 2.668918 0.758085 62 62 62
-1.811450 2.527410 -0.054277 100 100 100
-1.872661 2.612814 0.861350 68 68 68
-0.722315 1.022431 -0.335429 0 0 0
-1.816128 2.570713 0.054940 100 100 100
-1.849640 2.618150 0.167998 100 100 100
-1.691275 2.393985 -0.569756 100 100 100
-1.868123 2.644312 0.283256 100 100 100
-1.703997 2.411994 -0.467739 87 87 87
-1.887625 2.671917 0.401681 100 100 100
-1.735286 2.456283 -0.369264 100 100 100
-1.926258 2.726601 0.528748 92 92 92
-1.748563 2.475076 -0.265128 95 95 95
-1.942757 2.749956 0.654475 102 102 102
-1.770123 2.505594 -0.160776 85 85 85
-1.912652 2.707343 0.765283 66 66 66
-1.791897 2.536415 -0.054207 100 100 100
-1.868210 2.644435 0.867561 67 67 67
-0.729003 1.031897 -0.338535 0 0 0
-1.813820 2.567447 0.054870 100 100 100
-1.665278 2.357187 -0.666305 82 82 82
-1.840421 2.605100 0.167161 100 100 100
-1.689009 2.390778 -0.568992 100 100 100
-1.866973 2.642684 0.283082 95 95 95
-1.709696 2.420060 -0.469303 100 100 100
-1.887625 2.671917 0.401681 100 100 100
-1.729559 2.448176 -0.368045 100 100 100
-1.921699 2.720148 0.527497 86 86 86
-1.748563 2.475076 -0.265128 95 95 95
-1.940491 2.746749 0.653712 100 100 100
-1.763208 2.495806 -0.160148 87 87 87
-1.917150 2.713709 0.767083 66 66 66
-1.793051 2.538048 -0.054242 100 100 100
-1.883815 2.666524 0.874808 67 67 67
-1.799730 2.584656 0.054975 100 100 100
-1.644741 2.362070 -0.664505 86 86 86
-1.818081 2.611010 0.166742 100 100 100
-1.663722 2.389330 -0.565939 100 100 100
-1.847803 2.653696 0.282908 97 97 97
-1.688669 2.425157 -0.468052 91 91 91
-1.867126 2.681445 0.401194 96 96 96
-1.707183 2.451747 -0.366827 100 100 100
-1.894109 2.720197 0.524994 83 83 83
-1.733952 2.490190 -0.265476 100 100 100
-1.923994 2.763116 0.654475 100 100 100
-1.746179 2.507750 -0.160148 81 81 81
-1.909770 2.742688 0.771582 67 67 67
-1.768878 2.540348 -0.054033 100 100 100
-1.878868 2.698309 0.881020 66 66 66
-1.626071 2.335258 -0.762481 79 79 79
-1.796302 2.579733 0.054870 100 100 100
-1.650308 2.370067 -0.666755 81 81 81
-1.820363 2.614289 0.166952 100 100 100
-1.661478 2.386108 -0.565176 100 100 100
-1.837557 2.638980 0.281339 95 95 95
-1.688669 2.425157 -0.468052 99 99 99
-1.870529 2.686333 0.401925 100 100 100
-1.709452 2.455005 -0.367314 100 100 100
-1.891851 2.716954 0.524368 88 88 88
-1.722567 2.473840 -0.263733 93 93 93
-1.926238 2.766338 0.655238 93 93 93
-1.746179 2.507750 -0.160148 85 85 85
-1.926473 2.766677 0.778331 81 81 81
-1.766592 2.537066 -0.053963 100 100 100
-1.885492 2.707822 0.884126 67 67 67
-1.606041 2.342055 -0.760928 92 92 92
-1.773272 2.585924 0.054731 100 100 100
-1.632204 2.380208 -0.666305 93 93 93
-1.801609 2.627248 0.166952 100 100 100
-1.642140 2.394698 -0.564413 100 100 100
-1.817499 2.650419 0.281164 97 97 97
-1.663452 2.425775 -0.465862 87 87 87
-1.845645 2.691463 0.400706 96 96 96
-1.691841 2.467175 -0.367314 100 100 100
-1.870126 2.727164 0.523743 92 92 92
-1.699187 2.477887 -0.262862 99 99 99
-1.893069 2.760622 0.650659 93 93 93
-1.729319 2.521828 -0.160253 93 93 93
-1.919851 2.799678 0.783729 102 102 102
-1.746131 2.546344 -0.053893 100 100 100
-1.876992 2.737177 0.889302 68 68 68
-1.604949 2.340462 -0.760410 91 91 91
-1.767618 2.577679 0.054556 100 100 100
-1.623388 2.367351 -0.662706 93 93 93
-1.797091 2.620659 0.166533 100 100 100
-1.646582 2.401174 -0.565939 100 100 100
-1.822006 2.656992 0.281862 97 97 97
-1.660100 2.420888 -0.464923 91 91 91
-1.838909 2.681640 0.399244 100 100 100
-1.689596 2.463900 -0.366827 100 100 100
-1.870126 2.727164 0.523743 88 88 88
-1.707074 2.489389 -0.264082 100 100 100
