2.494293 -0.666011 -0.501828 1 1 1
3.070295 -0.819812 0.278027 45 45 45
3.742594 -0.999325 -0.613536 18 18 18
4.948181 -1.321234 0.628846 59 59 59
3.889500 -1.038551 -0.494302 23 23 23
3.462042 -0.924414 0.567544 11 11 11
4.036619 -1.077834 -0.365531 46 46 46
4.817874 -1.286440 0.969310 91 91 91
3.315146 -0.885191 -0.179826 1 1 1
4.776607 -1.275421 1.141402 99 99 99
4.383727 -1.170517 -0.079199 21 21 21
4.692283 -1.252906 1.301342 127 127 127
2.356614 -0.646908 -0.654812 1 1 1
2.431714 -0.667523 -0.582173 1 1 1
3.098951 -0.850684 0.168417 47 47 47
2.535020 -0.695881 -0.510986 1 1 1
3.077946 -0.844918 0.279247 33 33 33
3.706952 -1.017585 -0.608843 11 11 11
4.936922 -1.355221 0.628602 79 79 79
3.864927 -1.060950 -0.492108 6 6 6
4.055895 -1.113372 -0.367972 53 53 53
4.810669 -1.320563 0.969691 90 90 90
3.241476 -0.889809 -0.176163 1 1 1
4.750674 -1.304094 1.137353 100 100 100
4.367735 -1.198975 -0.079059 48 48 48
4.683422 -1.285633 1.301342 126 126 126
2.371518 -0.650999 -0.658953 1 1 1
4.003275 -1.098928 0.072462 55 55 55
2.450506 -0.672682 -0.586672 1 1 1
3.089321 -0.848041 0.167894 46 46 46
3.362357 -0.922991 -0.677754 6 6 6
3.099080 -0.850720 0.281164 11 11 11
3.678379 -1.009742 -0.604150 11 11 11
4.929265 -1.353119 0.627627 70 70 70
3.910869 -1.073562 -0.497958 2 2 2
3.447885 -0.946469 0.566293 1 1 1
4.082793 -1.120756 -0.370412 55 55 55
4.810669 -1.320563 0.969691 90 90 90
3.243402 -0.890337 -0.176268 4 4 4
4.743157 -1.302031 1.135553 100 100 100
4.352308 -1.194740 -0.078780 32 32 32
4.679696 -1.284610 1.300307 125 125 125
2.378188 -0.670270 -0.662059 1 1 1
3.997627 -1.126694 0.072497 61 61 61
2.472130 -0.696747 -0.592971 1 1 1
3.093089 -0.871758 0.168417 49 49 49
3.344658 -0.942661 -0.675464 10 10 10
3.110477 -0.876659 0.282733 13 13 13
3.667618 -1.033684 -0.603524 7 7 7
4.916119 -1.385563 0.627140 71 71 71
3.956970 -1.115235 -0.504783 4 4 4
3.452770 -0.973131 0.568170 1 1 1
4.069317 -1.146899 -0.369889 17 17 17
4.799679 -1.352745 0.969310 91 91 91
3.241111 -0.913477 -0.176477 4 4 4
4.741687 -1.336401 1.137353 100 100 100
4.434536 -1.249833 -0.080421 19 19 19
4.659687 -1.313290 1.297201 126 126 126
2.367032 -0.667126 -0.658953 1 1 1
3.986079 -1.123439 0.072288 48 48 48
2.494638 -0.703091 -0.598370 1 1 1
3.091166 -0.871217 0.168312 43 43 43
3.321983 -0.936270 -0.670884 7 7 7
3.125818 -0.880983 0.284128 12 12 12
3.635296 -1.024574 -0.598205 7 7 7
3.966523 -1.117928 -0.506002 4 4 4
3.433757 -0.967773 0.565041 1 1 1
4.101917 -1.156088 -0.372852 12 12 12
4.780783 -1.347419 0.965494 93 93 93
3.262257 -0.919437 -0.177628 1 1 1
4.734185 -1.334286 1.135553 100 100 100
4.471106 -1.260140 -0.081084 26 26 26
4.655968 -1.312242 1.296166 126 126 126
2.403021 -0.695869 -0.670341 1 1 1
4.010591 -1.161390 0.072881 57 57 57
2.493286 -0.722008 -0.599270 1 1 1
3.084853 -0.893314 0.168312 46 46 46
3.303883 -0.956741 -0.668595 7 7 7
3.148141 -0.911641 0.286742 12 12 12
3.616486 -1.047265 -0.596328 7 7 7
3.458852 -1.001617 0.442142 4 4 4
3.979396 -1.152357 -0.508683 6 6 6
3.430539 -0.993418 0.565667 1 1 1
4.771018 -1.381595 0.965494 91 91 91
3.338087 -0.966646 -0.182129 1 1 1
4.732003 -1.370297 1.137353 100 100 100
4.500390 -1.303226 -0.081782 26 26 26
4.646459 -1.345525 1.296166 125 125 125
2.403021 -0.695869 -0.670341 1 1 1
4.075897 -1.180301 0.074068 13 13 13
2.504517 -0.725260 -0.601969 1 1 1
3.065668 -0.887759 0.167266 46 46 46
3.286911 -0.951826 -0.665160 7 7 7
3.173020 -0.918845 0.289008 12 12 12
3.601307 -1.042869 -0.593825 6 6 6
3.422624 -0.991126 0.437511 6 6 6
3.950795 -1.144074 -0.505027 4 4 4
3.434334 -0.994517 0.566293 1 1 1
3.335689 -0.965952 -0.303825 1 1 1
4.776676 -1.383233 0.966638 15 15 15
3.391803 -0.982201 -0.185060 1 1 1
4.709541 -1.363792 1.131954 100 100 100
4.492707 -1.301001 -0.081642 19 19 19
4.650170 -1.346600 1.297201 125 125 125
2.424155 -0.719909 -0.677588 1 1 1
4.042848 -1.200617 0.073614 19 19 19
2.506995 -0.744510 -0.603769 1 1 1
3.065298 -0.910311 0.167580 37 37 37
3.254008 -0.966353 -0.659818 7 7 7
3.180061 -0.944392 0.290229 11 11 11
3.571401 -1.060610 -0.590071 6 6 6
3.360613 -0.998011 0.430443 4 4 4
3.914371 -1.162463 -0.501370 5 5 5
3.412336 -1.013372 0.563790 1 1 1
3.264099 -0.969349 -0.297898 1 1 1
4.692676 -1.393598 1.130154 100 100 100
4.543173 -1.349200 -0.082724 24 24 24
4.633489 -1.376021 1.295131 125 125 125
2.457490 -0.729808 -0.686906 1 1 1
4.002593 -1.188662 0.072881 19 19 19
2.873143 -0.853246 -0.691949 1 1 1
3.072957 -0.912585 0.167998 47 47 47
3.235188 -0.960764 -0.656001 7 7 7
3.199161 -0.950065 0.291972 7 7 7
3.561933 -1.057798 -0.588506 7 7 7
3.377739 -1.003097 0.432636 2 2 2
3.899148 -1.157942 -0.499421 5 5 5
3.410442 -1.012809 0.563477 1 1 1
3.229720 -0.959140 -0.294761 1 1 1
3.374457 -1.002123 0.684241 1 1 1
4.374895 -1.299226 -0.239175 63 63 63
4.700149 -1.395817 1.131954 100 100 100
4.591096 -1.363432 -0.083597 24 24 24
4.626081 -1.373821 1.293060 126 126 126
2.441247 -0.743570 -0.683800 1 1 1
3.957851 -1.205506 0.072218 21 21 21
2.967783 -0.903945 -0.716244 6 6 6
3.072243 -0.935762 0.168312 50 50 50
3.202109 -0.975317 -0.650659 7 7 7
3.221039 -0.981083 0.294586 10 10 10
3.518558 -1.071703 -0.582562 7 7 7
3.399138 -1.035330 0.436292 4 4 4
3.875777 -1.180507 -0.497471 5 5 5
3.397619 -1.034867 0.562538 1 1 1
3.226757 -0.982825 -0.295109 3 3 3
3.357988 -1.022796 0.682333 1 1 1
4.371450 -1.331482 -0.239489 15 15 15
4.690290 -1.428596 1.131954 100 100 100
4.612681 -1.404958 1.292025 125 125 125
2.478207 -0.754827 -0.694153 1 1 1
3.940635 -1.200262 0.071904 25 25 25
2.952869 -0.899403 -0.712645 7 7 7
3.068422 -0.934598 0.168103 46 46 46
3.192718 -0.972457 -0.648751 8 8 8
3.253440 -0.990952 0.297550 12 12 12
3.482654 -1.060768 -0.576617 7 7 7
3.401037 -1.035908 0.436536 9 9 9
3.841596 -1.170096 -0.493083 5 5 5
3.388171 -1.031989 0.560974 1 1 1
3.230569 -0.983986 -0.295458 2 2 2
3.357988 -1.022796 0.682333 1 1 1
4.455516 -1.357088 -0.244095 19 19 19
4.694018 -1.429732 1.132854 100 100 100
4.671374 -1.422835 -0.085238 15 15 15
4.612681 -1.404958 1.292025 125 125 125
2.472608 -0.772973 -0.694153 1 1 1
3.920279 -1.225536 0.071694 31 31 31
2.922017 -0.913465 -0.706796 7 7 7
3.048144 -0.952894 0.167370 37 37 37
3.170513 -0.991148 -0.645698 7 7 7
3.284122 -1.026664 0.301036 15 15 15
3.461587 -1.082142 -0.574427 6 6 6
3.325144 -1.039488 0.427761 3 3 3
3.795022 -1.186379 -0.488209 4 4 4
3.391827 -1.060334 0.562851 1 1 1
3.253695 -1.017152 -0.298247 1 1 1
3.348527 -1.046798 0.681951 1 1 1
4.666672 -1.458869 1.128804 100 100 100
4.697082 -1.468376 -0.085901 24 24 24
4.602259 -1.438733 1.292025 123 123 123
2.483671 -0.776431 -0.697259 1 1 1
3.903101 -1.220166 0.071380 40 40 40
2.916437 -0.911721 -0.705447 9 9 9
4.960145 -1.550613 0.272356 56 56 56
3.140532 -0.981776 -0.639592 7 7 7
3.314548 -1.036176 0.303825 13 13 13
3.438962 -1.075069 -0.570673 5 5 5
3.374406 -1.054888 0.434099 1 1 1
3.304303 -1.032973 -0.425080 1 1 1
3.382400 -1.057387 0.561287 1 1 1
3.314548 -1.036176 -0.303825 1 1 1
3.365391 -1.052070 0.685386 2 2 2
4.661092 -1.457125 1.127455 100 100 100
4.716168 -1.474342 -0.086250 24 24 24
4.598571 -1.437580 1.290989 124 124 124
2.511446 -0.803920 -0.706576 1 1 1
3.898515 -1.247924 0.071450 46 46 46
2.891604 -0.925610 -0.700947 7 7 7
4.953280 -1.585557 0.272566 85 85 85
3.113209 -0.996546 -0.635394 6 6 6
3.324496 -1.064180 0.305394 20 20 20
3.422158 -1.095442 -0.569109 5 5 5
3.406850 -1.090541 0.439217 1 1 1
3.297195 -1.055441 -0.425080 1 1 1
3.375125 -1.080386 0.561287 1 1 1
4.130952 -1.322328 -0.379476 1 1 1
3.350673 -1.072559 0.683859 2 2 2
4.561430 -1.460125 -0.251003 3 3 3
4.647354 -1.487630 1.126555 100 100 100
4.742209 -1.517993 -0.086913 19 19 19
4.581320 -1.466492 1.288919 124 124 124
2.526165 -0.808632 -0.710717 1 1 1
3.888992 -1.244876 0.071276 55 55 55
2.882324 -0.922639 -0.698698 7 7 7
4.958986 -1.587384 0.272880 82 82 82
3.101990 -0.992955 -0.633104 6 6 6
3.332086 -1.066609 0.306091 22 22 22
3.384531 -1.083397 -0.562851 6 6 6
3.421974 -1.095383 0.441167 1 1 1
3.274508 -1.048178 -0.422155 1 1 1
3.392057 -1.085806 0.564103 1 1 1
4.108181 -1.315039 -0.377384 4 4 4
3.335715 -1.067771 0.680806 2 2 2
4.574746 -1.464388 -0.251736 3 3 3
4.652922 -1.489412 1.127905 76 76 76
4.577640 -1.465314 1.287884 123 123 123
2.524130 -0.827452 -0.711752 1 1 1
3.865005 -1.267013 0.070996 57 57 57
2.849888 -0.934240 -0.692399 9 9 9
4.942090 -1.620099 0.272566 75 75 75
3.080058 -1.009694 -0.630051 6 6 6
3.358637 -1.101017 0.309229 25 25 25
3.356238 -1.100230 -0.559410 6 6 6
3.410471 -1.118009 0.440680 1 1 1
3.248247 -1.064829 -0.419718 1 1 1
3.359992 -1.101461 0.560035 1 1 1
4.079968 -1.337481 -0.375641 5 5 5
3.328179 -1.091032 0.680806 2 2 2
4.547330 -1.490690 -0.250794 5 5 5
4.824605 -1.581585 -0.088623 14 14 14
4.570970 -1.498440 1.288919 124 124 124
2.595724 -0.850921 -0.731940 2 2 2
3.865005 -1.267013 0.070996 45 45 45
2.831370 -0.928170 -0.687900 9 9 9
3.074461 -1.007859 -0.628906 7 7 7
3.379463 -1.107844 0.311146 13 13 13
3.344975 -1.096538 -0.557532 6 6 6
3.414244 -1.119246 0.441167 1 1 1
3.231271 -1.059264 -0.417524 2 2 2
3.375008 -1.106384 0.562538 2 2 2
4.061035 -1.331275 -0.373898 4 4 4
3.333776 -1.092867 0.681951 3 3 3
4.520760 -1.481980 -0.249328 3 3 3
4.896813 -1.605256 -0.089950 1 1 1
4.567299 -1.497236 1.287884 125 125 125
2.630012 -0.882543 -0.743328 7 7 7
3.857961 -1.294600 0.071031 28 28 28
2.813736 -0.944194 -0.685201 7 7 7
4.144859 -1.390874 0.229127 12 12 12
3.041293 -1.020554 -0.623564 7 7 7
3.379202 -1.133945 0.311843 8 8 8
3.326002 -1.116093 -0.555655 7 7 7
3.406347 -1.143054 0.441167 1 1 1
3.246380 -1.089375 -0.420449 1 1 1
3.348475 -1.123634 0.559410 2 2 2
4.015754 -1.347550 -0.370586 5 5 5
3.318620 -1.113616 0.680425 5 5 5
4.906341 -1.646401 -0.090334 3 3 3
4.556735 -1.529085 1.287884 123 123 123
2.615361 -0.877626 -0.739187 7 7 7
3.846586 -1.290783 0.070822 4 4 4
2.802652 -0.940474 -0.682501 6 6 6
4.110776 -1.379437 0.227243 13 13 13
3.031986 -1.017431 -0.621656 7 7 7
3.313091 -1.111761 0.305742 3 3 3
3.299783 -1.107295 -0.551275 7 7 7
3.406347 -1.143054 0.441167 1 1 1
3.293429 -1.105163 -0.426543 1 1 1
3.340984 -1.121120 0.558158 2 2 2
3.974198 -1.333606 -0.366751 5 5 5
3.322342 -1.114865 0.681188 5 5 5
3.313615 -1.111936 -0.183176 1 1 1
4.925299 -1.652763 -0.090683 5 5 5
4.549409 -1.526627 1.285813 123 123 123
2.598363 -0.891646 -0.736081 8 8 8
3.854734 -1.322778 0.071136 1 1 1
2.794342 -0.958897 -0.682052 7 7 7
4.063509 -1.394420 0.225149 13 13 13
3.013849 -1.034222 -0.619366 7 7 7
3.214990 -1.103245 0.297375 2 2 2
3.264143 -1.120113 -0.546582 4 4 4
3.405998 -1.168791 0.442142 1 1 1
3.432285 -1.177811 -0.445554 1 1 1
3.344486 -1.147683 0.560035 2 2 2
3.940530 -1.352219 -0.364485 5 5 5
3.305392 -1.134267 0.679280 5 5 5
3.268187 -1.121500 -0.181082 1 1 1
4.946089 -1.697284 -0.091276 9 9 9
4.535257 -1.556304 1.284778 123 123 123
2.591054 -0.889137 -0.734011 9 9 9
3.873648 -1.329268 0.071485 1 1 1
2.764850 -0.948777 -0.674853 7 7 7
3.999279 -1.372379 0.221590 12 12 12
2.998993 -1.029125 -0.616313 7 7 7
3.130187 -1.074144 0.289531 2 2 2
3.239854 -1.111777 -0.542515 4 4 4
3.387222 -1.162348 0.439705 1 1 1
3.556207 -1.220336 -0.461641 3 3 3
3.344486 -1.147683 0.560035 2 2 2
3.910378 -1.341872 -0.361696 4 4 4
3.299821 -1.132356 0.678135 6 6 6
3.192622 -1.095570 -0.176896 1 1 1
4.930958 -1.692091 -0.090997 7 7 7
4.538912 -1.557558 1.285813 121 121 121
2.586606 -0.907844 -0.734528 9 9 9
4.945441 -1.735746 0.091486 18 18 18
2.756320 -0.967410 -0.674403 5 5 5
3.914218 -1.373808 0.217404 12 12 12
2.978768 -1.045485 -0.613642 7 7 7
3.085012 -1.082774 0.286045 2 2 2
3.220830 -1.130443 -0.540638 6 6 6
3.364040 -1.180707 0.437755 1 1 1
3.515759 -1.233957 -0.457498 5 5 5
3.319617 -1.165116 0.557220 2 2 2
3.883995 -1.363200 -0.360128 5 5 5
3.345557 -1.174220 0.689202 3 3 3
3.181127 -1.116509 -0.176686 1 1 1
4.886948 -1.715216 -0.090403 5 5 5
4.531573 -1.590487 1.286848 123 123 123
2.577492 -0.904645 -0.731940 9 9 9
4.958648 -1.740381 0.091730 90 90 90
2.737933 -0.960957 -0.669904 8 8 8
3.865220 -1.356611 0.214682 16 16 16
2.956539 -1.037683 -0.609062 7 7 7
3.051173 -1.070898 0.282908 2 2 2
3.207782 -1.125864 -0.538447 6 6 6
3.367786 -1.182022 0.438242 1 1 1
3.489536 -1.224754 -0.454085 5 5 5
3.323345 -1.166424 0.557845 2 2 2
3.853916 -1.352643 -0.357339 5 5 5
3.397426 -1.192425 0.699887 8 8 8
3.198088 -1.122461 -0.177628 1 1 1
4.582222 -1.608263 1.121156 2 2 2
4.834116 -1.696673 -0.089426 3 3 3
4.527928 -1.589207 1.285813 122 122 122
2.543679 -0.913274 -0.724176 9 9 9
4.942304 -1.774468 0.091660 90 90 90
2.736488 -0.982500 -0.671254 8 8 8
3.830976 -1.375461 0.213321 19 19 19
2.932408 -1.052842 -0.605628 6 6 6
2.975925 -1.068466 0.276632 3 3 3
3.190348 -1.145452 -0.536883 6 6 6
3.374188 -1.211457 0.440192 1 1 1
3.469473 -1.245668 -0.452623 5 5 5
3.318631 -1.191510 0.558471 2 2 2
3.821635 -1.372107 -0.355247 5 5 5
3.427609 -1.230638 0.707901 1 1 1
3.178695 -1.141268 -0.177000 1 1 1
3.888308 -1.396045 0.953792 1 1 1
4.780446 -1.716355 -0.088658 5 5 5
4.501894 -1.616345 1.281672 123 123 123
2.523679 -0.906093 -0.718482 9 9 9
4.919719 -1.766360 0.091241 88 88 88
2.725484 -0.978549 -0.668555 8 8 8
3.825337 -1.373436 0.213007 23 23 23
2.923169 -1.049525 -0.603720 5 5 5
2.951548 -1.059714 0.274366 9 9 9
3.164320 -1.136107 -0.532503 6 6 6
3.340558 -1.199383 0.435805 1 1 1
3.461999 -1.242985 -0.451648 5 5 5
3.320490 -1.192178 0.558784 4 4 4
3.782256 -1.357969 -0.351586 1 1 1
3.180575 -1.141943 -0.177105 1 1 1
3.880971 -1.393411 0.951993 1 1 1
4.746569 -1.704192 -0.088030 3 3 3
4.501894 -1.616345 1.281672 123 123 123
2.517453 -0.923250 -0.718482 9 9 9
4.901949 -1.797740 0.091136 86 86 86
2.696805 -0.989026 -0.663156 9 9 9
3.795273 -1.391878 0.211856 28 28 28
2.893839 -1.061286 -0.599140 7 7 7
2.936784 -1.077036 0.273669 23 23 23
3.136113 -1.150137 -0.529061 7 7 7
3.328590 -1.220727 0.435317 1 1 1
3.436685 -1.260369 -0.449454 5 5 5
3.317862 -1.216792 0.559723 4 4 4
3.157727 -1.158064 -0.176268 1 1 1
4.533706 -1.662691 1.114857 2 2 2
3.353076 -1.229707 -0.062340 1 1 1
4.487160 -1.645621 1.280637 122 122 122
2.513825 -0.921920 -0.717446 9 9 9
4.901949 -1.797740 0.091136 88 88 88
2.685827 -0.985000 -0.660456 8 8 8
3.785897 -1.388439 0.211333 34 34 34
2.888309 -1.059258 -0.597995 7 7 7
2.951748 -1.082524 0.275064 38 38 38
3.121276 -1.144696 -0.526558 7 7 7
3.339772 -1.224828 0.436780 1 1 1
3.395683 -1.245332 -0.444092 6 6 6
3.325281 -1.219513 0.560974 4 4 4
3.148351 -1.154626 -0.175744 1 1 1
4.566638 -1.674768 1.122956 2 2 2
3.332424 -1.222133 -0.061956 1 1 1
4.494415 -1.648281 1.282707 122 122 122
2.492856 -0.934025 -0.713305 9 9 9
4.889279 -1.831918 0.091136 88 88 88
2.669761 -1.000308 -0.658207 9 9 9
3.768631 -1.412033 0.210914 41 41 41
2.862459 -1.072508 -0.594179 7 7 7
2.947850 -1.104502 0.275412 54 54 54
3.102110 -1.162300 -0.524681 4 4 4
3.346011 -1.253685 0.438730 1 1 1
3.370177 -1.262740 -0.441898 6 6 6
3.370330 -1.262797 0.570047 8 8 8
3.151436 -1.180782 -0.176372 1 1 1
4.547536 -1.703873 1.121156 16 16 16
3.333174 -1.248876 -0.062131 1 1 1
4.479180 -1.678262 1.281672 123 123 123
2.465720 -0.923858 -0.705541 9 9 9
4.893025 -1.833321 0.091206 46 46 46
2.653337 -0.994154 -0.654158 8 8 8
3.776112 -1.414836 0.211333 38 38 38
2.855106 -1.069753 -0.592653 7 7 7
2.934790 -1.099609 0.274192 49 49 49
3.094710 -1.159528 -0.523430 6 6 6
3.332999 -1.248810 0.437023 1 1 1
3.359023 -1.258561 -0.440436 6 6 6
3.398077 -1.273194 0.574740 22 22 22
3.251964 -1.218448 -0.303825 1 1 1
3.149565 -1.180081 -0.176268 1 1 1
4.551185 -1.705241 1.122056 34 34 34
3.340664 -1.251682 -0.062270 1 1 1
4.471944 -1.675551 1.279601 124 124 124
2.453634 -0.939406 -0.703988 9 9 9
4.853635 -1.858278 0.090718 11 11 11
2.631596 -1.007541 -0.650558 8 8 8
3.778948 -1.446820 0.212065 42 42 42
2.829043 -1.083136 -0.588837 9 9 9
4.741008 -1.815157 0.444146 30 30 30
3.051283 -1.168224 -0.517485 7 7 7
3.323977 -1.272628 0.437023 1 1 1
3.336954 -1.277597 -0.438730 7 7 7
3.412862 -1.306659 0.578808 42 42 42
3.243162 -1.241687 -0.303825 1 1 1
4.636843 -1.775276 0.965112 1 1 1
3.152232 -1.206873 -0.176896 2 2 2
4.529767 -1.734281 1.119806 36 36 36
3.324152 -1.272695 -0.062131 1 1 1
4.459840 -1.707508 1.279601 123 123 123
2.444613 -0.935952 -0.701400 9 9 9
2.617037 -1.001967 -0.646959 8 8 8
3.784543 -1.448962 0.212379 38 38 38
2.825376 -1.081732 -0.588073 7 7 7
4.754033 -1.820144 0.445366 73 73 73
3.038369 -1.163280 -0.515295 7 7 7
3.312854 -1.268370 0.435561 1 1 1
3.322123 -1.271918 -0.436780 6 6 6
3.411017 -1.305953 0.578495 11 11 11
3.291540 -1.260209 -0.308357 1 1 1
3.135445 -1.200446 -0.175953 1 1 1
4.529767 -1.734281 1.119806 38 38 38
3.312947 -1.268405 -0.061921 1 1 1
4.452623 -1.704745 1.277531 123 123 123
2.432787 -0.950461 -0.699847 9 9 9
3.754984 -1.467028 0.070368 1 1 1
2.595635 -1.014084 -0.643360 8 8 8
3.772733 -1.473962 0.212275 23 23 23
2.806976 -1.096652 -0.585784 9 9 9
4.754524 -1.857536 0.446586 97 97 97
3.021181 -1.180340 -0.513731 6 6 6
3.326332 -1.299558 0.438486 1 1 1
3.281956 -1.282221 -0.432636 7 7 7
3.175250 -1.240533 -0.298247 1 1 1
3.121620 -1.219580 -0.175639 2 2 2
4.499706 -1.757982 1.115307 36 36 36
3.132878 -1.223978 -0.058710 1 1 1
4.451713 -1.739232 1.280637 123 123 123
2.429188 -0.949055 -0.698811 9 9 9
4.853912 -1.896366 0.090962 1 1 1
2.584744 -1.009829 -0.640661 8 8 8
3.787615 -1.479776 0.213112 11 11 11
2.781374 -1.086650 -0.580441 9 9 9
4.735966 -1.850286 0.444843 93 93 93
3.008301 -1.175308 -0.511541 7 7 7
3.317087 -1.295947 0.437267 2 2 2
3.252372 -1.270663 -0.428736 5 5 5
3.922751 -1.532573 0.667037 1 1 1
3.234635 -1.263734 -0.303825 1 1 1
4.544192 -1.775362 0.948321 1 1 1
3.147664 -1.229755 -0.177105 1 1 1
4.496076 -1.756564 1.114408 38 38 38
3.136603 -1.225434 -0.058780 1 1 1
4.448114 -1.737826 1.279601 124 124 124
2.404559 -0.958835 -0.693635 9 9 9
4.846127 -1.932428 0.091067 7 7 7
2.570391 -1.024962 -0.638861 8 8 8
2.762779 -1.101678 -0.578151 9 9 9
4.708128 -1.877400 0.443448 91 91 91
2.996353 -1.194818 -0.510915 7 7 7
3.296895 -1.314661 0.435805 3 3 3
3.236046 -1.290397 -0.427761 5 5 5
3.838562 -1.530654 0.654522 1 1 1
3.181317 -1.268573 -0.299641 1 1 1
4.544452 -1.812133 0.950992 19 19 19
3.139003 -1.251700 -0.177105 1 1 1
4.494564 -1.792240 1.117107 38 38 38
3.094537 -1.233969 -0.058151 1 1 1
4.428696 -1.765974 1.277531 124 124 124
2.391998 -0.953827 -0.690012 9 9 9
4.829410 -1.925762 0.090753 3 3 3
2.566771 -1.023518 -0.637961 8 8 8
3.354206 -1.337514 0.189247 3 3 3
2.755484 -1.098769 -0.576625 10 10 10
4.709978 -1.878138 0.443623 90 90 90
2.974335 -1.186038 -0.507161 7 7 7
3.272924 -1.305102 0.432636 3 3 3
3.219451 -1.283780 -0.425568 5 5 5
3.820213 -1.523338 0.651393 1 1 1
3.185019 -1.270049 -0.299990 1 1 1
4.540805 -1.810679 0.950229 71 71 71
3.127871 -1.247261 -0.176477 8 8 8
4.494564 -1.792240 1.117107 36 36 36
3.142832 -1.253227 -0.059059 1 1 1
4.421518 -1.763112 1.275460 124 124 124
2.388690 -0.972376 -0.691047 9 9 9
3.215276 -1.308858 0.060595 8 8 8
2.541332 -1.034512 -0.633462 8 8 8
3.329750 -1.355457 0.188409 16 16 16
2.736641 -1.114018 -0.574335 9 9 9
2.943816 -1.198354 -0.503406 7 7 7
3.166056 -1.288822 0.419718 2 2 2
3.204667 -1.304539 -0.424837 7 7 7
3.838488 -1.562552 0.656399 1 1 1
3.161086 -1.286799 -0.298596 1 1 1
4.529550 -1.843866 0.950610 98 98 98
3.120716 -1.270365 -0.176582 15 15 15
4.481624 -1.824356 1.117107 36 36 36
3.156009 -1.284732 -0.059478 1 1 1
4.412367 -1.796163 1.276496 124 124 124
2.377954 -0.968005 -0.687941 9 9 9
3.209720 -1.306596 0.060490 13 13 13
2.523282 -1.027165 -0.628963 8 8 8
3.296453 -1.341903 0.186525 16 16 16
2.727549 -1.110317 -0.572427 10 10 10
2.932839 -1.193885 -0.501529 7 7 7
3.099867 -1.261878 0.410943 2 2 2
3.178926 -1.294061 -0.421424 7 7 7
3.856784 -1.569999 0.659528 1 1 1
3.140787 -1.278535 -0.296678 1 1 1
4.525913 -1.842385 0.949847 78 78 78
3.126266 -1.272624 -0.176896 2 2 2
4.470794 -1.819948 1.114408 40 40 40
3.181938 -1.295287 -0.059966 1 1 1
4.412367 -1.796163 1.276496 123 123 123
2.367742 -0.982688 -0.686906 9 9 9
3.195211 -1.326114 0.060385 25 25 25
2.512633 -1.042822 -0.628063 9 9 9
3.259572 -1.352826 0.184955 17 17 17
2.696356 -1.119073 -0.567466 9 9 9
2.913698 -1.209277 -0.499652 7 7 7
3.058204 -1.269251 0.406556 2 2 2
3.157210 -1.310342 -0.419718 8 8 8
3.758433 -1.559869 0.644510 1 1 1
3.157775 -1.310577 -0.299119 1 1 1
3.195008 -1.326030 -0.181292 1 1 1
4.454703 -1.848843 1.113508 32 32 32
3.213681 -1.333779 -0.060734 1 1 1
4.400039 -1.826156 1.276496 125 125 125
2.346330 -0.973802 -0.680694 10 10 10
3.171201 -1.316149 0.059932 12 12 12
2.509033 -1.041328 -0.627164 9 9 9
3.237436 -1.343638 0.183699 18 18 18
2.681849 -1.113053 -0.564413 8 8 8
2.927750 -1.215109 0.277330 1 1 1
2.910049 -1.207762 -0.499026 9 9 9
2.999533 -1.244901 0.398756 2 2 2
3.142542 -1.304255 -0.417768 8 8 8
3.783975 -1.570470 0.648890 1 1 1
3.143053 -1.304467 -0.297724 1 1 1
4.520521 -1.876160 0.951374 75 75 75
3.169182 -1.315311 -0.179826 1 1 1
4.458303 -1.850337 1.114408 40 40 40
4.157469 -1.725481 -0.078571 1 1 1
4.382196 -1.818750 1.271319 121 121 121
2.330579 -0.986393 -0.678106 10 10 10
3.149045 -1.332800 0.059687 1 1 1
2.494523 -1.055781 -0.625364 9 9 9
3.198548 -1.353752 0.182024 15 15 15
2.663166 -1.127157 -0.562123 9 9 9
2.858647 -1.209892 0.271577 1 1 1
2.872440 -1.215730 -0.494020 7 7 7
2.957863 -1.251884 0.394369 3 3 3
3.122392 -1.321520 -0.416306 8 8 8
3.721983 -1.575290 0.640130 1 1 1
3.133870 -1.326377 -0.297724 1 1 1
4.501889 -1.905377 0.950229 100 100 100
3.251887 -1.376327 -0.185060 1 1 1
4.441687 -1.879897 1.113508 36 36 36
3.771487 -1.596242 -0.071485 1 1 1
4.371171 -1.850052 1.271837 100 100 100
2.325242 -0.984134 -0.676553 9 9 9
2.476577 -1.048185 -0.620865 9 9 9
3.170958 -1.342075 0.180454 15 15 15
2.654126 -1.123331 -0.560215 9 9 9
2.867821 -1.213775 0.272449 4 4 4
2.857886 -1.209570 -0.491517 9 9 9
2.901192 -1.227899 0.386813 3 3 3
3.109595 -1.316104 -0.414600 7 7 7
3.696515 -1.564511 0.635750 3 3 3
3.161392 -1.338026 -0.300339 1 1 1
4.485617 -1.898490 0.946794 99 99 99
3.251887 -1.376327 -0.185060 1 1 1
4.441687 -1.879897 1.113508 36 36 36
4.378287 -1.853064 1.273907 96 96 96
2.320089 -1.001109 -0.677071 9 9 9
3.191073 -1.376935 0.060665 1 1 1
2.456674 -1.060045 -0.617716 9 9 9
3.115666 -1.344397 0.177838 14 14 14
2.626390 -1.133277 -0.556017 9 9 9
2.879400 -1.242449 0.274366 4 4 4
2.842117 -1.226362 -0.490266 7 7 7
2.836047 -1.223743 0.379257 4 4 4
3.072992 -1.325983 -0.410943 8 8 8
3.634718 -1.568366 0.626989 1 1 1
3.159291 -1.363221 -0.301036 1 1 1
4.468649 -1.928204 0.946031 94 94 94
4.414141 -1.904684 1.109909 36 36 36
4.057693 -1.750878 -0.077140 3 3 3
4.372339 -1.886646 1.275978 99 99 99
2.302351 -0.993455 -0.671894 9 9 9
4.573626 -1.973501 0.086948 1 1 1
2.453096 -1.058501 -0.616816 9 9 9
3.106497 -1.340441 0.177314 12 12 12
2.613772 -1.127832 -0.553346 9 9 9
2.877571 -1.241660 0.274192 1 1 1
2.834863 -1.223232 -0.489014 7 7 7
2.821466 -1.217451 0.377307 9 9 9
3.049297 -1.315759 -0.407775 7 7 7
3.489620 -1.505757 0.601960 1 1 1
3.210513 -1.385323 -0.305917 1 1 1
4.475859 -1.931315 0.947557 91 91 91
3.630970 -1.566749 -0.207250 1 1 1
4.414141 -1.904684 1.109909 36 36 36
4.024644 -1.736618 -0.076511 3 3 3
4.368791 -1.885116 1.274943 92 92 92
2.281212 -1.003282 -0.667753 9 9 9
4.556076 -2.003773 0.086878 5 5 5
2.443862 -1.074816 -0.616366 9 9 9
2.598646 -1.142890 -0.551820 9 9 9
2.879775 -1.266532 0.275238 1 1 1
2.809980 -1.235835 -0.486198 9 9 9
2.869228 -1.261893 0.384863 6 6 6
3.030952 -1.333019 -0.406556 7 7 7
3.460940 -1.522129 0.598831 1 1 1
3.233592 -1.422141 -0.309054 1 1 1
4.469455 -1.965676 0.949084 89 89 89
3.623600 -1.593668 -0.207460 6 6 6
4.404304 -1.937023 1.110808 38 38 38
4.348451 -1.912458 1.272872 94 94 94
2.274139 -1.000171 -0.665683 9 9 9
4.548754 -2.000552 0.086738 7 7 7
2.434943 -1.070893 -0.614116 9 9 9
2.932520 -1.289729 0.167894 1 1 1
2.593255 -1.140519 -0.550675 8 8 8
3.751550 -1.649940 0.358559 1 1 1
2.799130 -1.231064 -0.484321 9 9 9
2.903753 -1.277077 0.389494 3 3 3
3.021866 -1.329023 -0.405337 7 7 7
3.433817 -1.510200 0.594138 1 1 1
3.178878 -1.398078 -0.303825 1 1 1
4.456876 -1.960144 0.946413 57 57 57
3.599833 -1.583215 -0.206099 6 6 6
4.415007 -1.941730 1.113508 36 36 36
3.166738 -1.392739 -0.060385 1 1 1
4.337840 -1.907792 1.269766 96 96 96
2.263929 -1.013653 -0.664647 9 9 9
4.495234 -2.012699 0.085971 7 7 7
2.404665 -1.076666 -0.608268 9 9 9
2.889267 -1.293642 0.165905 1 1 1
2.578466 -1.154484 -0.549148 9 9 9
3.747799 -1.678042 0.359256 22 22 22
2.769269 -1.239914 -0.480567 9 9 9
2.998491 -1.342546 -0.403388 7 7 7
3.355215 -1.502266 0.582249 1 1 1
3.169536 -1.419130 -0.303825 1 1 1
4.429443 -1.983241 0.943360 19 19 19
3.565556 -1.596444 -0.204738 6 6 6
4.391360 -1.966190 1.110808 34 34 34
3.931277 -1.760192 -0.075185 1 1 1
4.332145 -1.939677 1.271837 75 75 75
2.249824 -1.007337 -0.660506 9 9 9
4.480633 -2.006161 0.085691 5 5 5
2.395772 -1.072685 -0.606018 9 9 9
2.872861 -1.286297 0.164963 3 3 3
2.571299 -1.151275 -0.547622 9 9 9
3.764165 -1.685369 0.360825 33 33 33
2.758452 -1.235071 -0.478689 9 9 9
4.043886 -1.810612 0.544025 15 15 15
2.985809 -1.336868 -0.401681 8 8 8
3.355215 -1.502266 0.582249 1 1 1
3.220452 -1.441927 -0.308706 1 1 1
4.398981 -1.969603 0.936872 14 14 14
3.541859 -1.585834 -0.203378 6 6 6
4.387803 -1.964598 1.109909 36 36 36
3.905725 -1.748752 -0.074696 6 6 6
4.337434 -1.942046 1.273390 12 12 12
2.246252 -1.024623 -0.661541 9 9 9
4.399202 -2.006687 0.084400 3 3 3
2.379360 -1.085340 -0.603769 9 9 9
2.863811 -1.306321 0.164963 3 3 3
2.543550 -1.160235 -0.543424 9 9 9
3.380702 -1.542100 0.325091 9 9 9
2.746168 -1.252659 -0.478064 9 9 9
4.016699 -1.832209 0.542075 15 15 15
2.956536 -1.348618 -0.399000 8 8 8
3.337457 -1.522374 0.580998 2 2 2
3.213932 -1.466028 -0.309054 3 3 3
4.356545 -1.987229 0.930766 8 8 8
3.521616 -1.606378 -0.202854 3 3 3
4.370435 -1.993565 1.109009 36 36 36
3.864312 -1.762698 -0.074138 4 4 4
2.225160 -1.015002 -0.655330 9 9 9
2.375814 -1.083723 -0.602869 9 9 9
2.909240 -1.327044 0.167580 1 1 1
2.541764 -1.159420 -0.543042 9 9 9
3.369825 -1.537139 0.324045 17 17 17
2.738979 -1.249379 -0.476812 9 9 9
3.978771 -1.814908 0.536956 17 17 17
2.947506 -1.344498 -0.397782 8 8 8
3.376996 -1.540409 0.587881 6 6 6
3.181304 -1.451145 -0.305917 7 7 7
4.274379 -1.949749 0.913212 5 5 5
3.249045 -1.482045 -0.187153 1 1 1
4.363343 -1.990330 1.107209 38 38 38
3.831563 -1.747759 -0.073510 4 4 4
2.205398 -1.025584 -0.651706 9 9 9
2.355437 -1.095357 -0.599720 9 9 9
2.962820 -1.377810 0.171243 1 1 1
2.515395 -1.169743 -0.539226 9 9 9
3.338595 -1.552558 0.322128 27 27 27
2.704671 -1.257762 -0.472432 9 9 9
3.931161 -1.828121 0.532325 12 12 12
2.926771 -1.361046 -0.396319 8 8 8
3.157935 -1.468545 -0.304696 5 5 5
4.076614 -1.895761 0.873905 3 3 3
3.419195 -1.590040 -0.197621 1 1 1
4.355704 -2.025548 1.109009 36 36 36
3.805956 -1.769897 -0.073265 6 6 6
1.322538 -0.615024 0.390817 0 0 0
2.207150 -1.026398 -0.652224 9 9 9
2.926543 -1.360940 0.056336 1 1 1
2.339534 -1.087962 -0.595670 9 9 9
3.018961 -1.403918 0.174488 2 2 2
2.511835 -1.168087 -0.538463 9 9 9
3.298849 -1.534075 0.318293 16 16 16
2.697506 -1.254430 -0.471181 9 9 9
3.884361 -1.806358 0.525988 12 12 12
2.908771 -1.352676 -0.393882 8 8 8
4.463602 -2.075724 0.779669 70 70 70
3.143482 -1.461824 -0.303302 5 5 5
3.692095 -1.716947 0.791476 4 4 4
3.433683 -1.596777 -0.198458 7 7 7
4.355704 -2.025548 1.109009 38 38 38
3.778758 -1.757248 -0.072742 4 4 4
1.317283 -0.612581 0.389264 0 0 0
2.189455 -1.036821 -0.649118 9 9 9
2.900705 -1.373635 0.056022 1 1 1
2.321314 -1.099264 -0.592971 9 9 9
2.491198 -1.179713 -0.535792 9 9 9
3.286259 -1.556215 0.318118 17 17 17
2.674400 -1.266468 -0.468678 8 8 8
3.835774 -1.816440 0.521113 11 11 11
2.883110 -1.365303 -0.391688 8 8 8
4.450787 -2.107680 0.779982 73 73 73
3.122396 -1.478618 -0.302256 6 6 6
3.397181 -1.608743 -0.196993 7 7 7
4.336173 -2.053405 1.107659 72 72 72
3.751940 -1.776739 -0.072462 6 6 6
1.321704 -0.625896 0.391852 1 1 1
2.185963 -1.035168 -0.648083 9 9 9
2.893476 -1.370212 0.055883 3 3 3
2.316031 -1.096762 -0.591621 9 9 9
3.028942 -1.434362 0.175639 47 47 47
2.473455 -1.171310 -0.531975 9 9 9
3.271853 -1.549393 0.316724 17 17 17
2.667259 -1.263086 -0.467426 8 8 8
3.799892 -1.799448 0.516239 11 11 11
2.866963 -1.357657 -0.389494 8 8 8
3.111592 -1.473501 -0.301210 6 6 6
3.607269 -1.708231 0.775829 54 54 54
3.389960 -1.605323 -0.196574 7 7 7
4.306232 -2.039226 1.100011 48 48 48
3.717601 -1.760478 -0.071799 1 1 1
1.325196 -0.627550 0.392887 1 1 1
2.168242 -1.045369 -0.644977 9 9 9
2.882038 -1.389510 0.055848 2 2 2
2.299541 -1.108672 -0.589372 9 9 9
3.020654 -1.456341 0.175744 49 49 49
2.456375 -1.184286 -0.530067 9 9 9
3.230447 -1.557488 0.313761 17 17 17
2.647700 -1.276529 -0.465549 8 8 8
3.753263 -1.809552 0.511608 13 13 13
2.843110 -1.370742 -0.387545 8 8 8
2.886135 -1.391485 0.507473 25 25 25
3.072514 -1.481344 -0.298421 7 7 7
3.602330 -1.736783 0.777356 46 46 46
3.360680 -1.620277 -0.195527 7 7 7
3.916241 -1.888128 1.003732 14 14 14
3.552112 -1.712571 -0.068832 1 1 1
1.315562 -0.634269 0.391334 0 0 0
2.157801 -1.040335 -0.641871 10 10 10
2.882038 -1.389510 0.055848 1 1 1
2.297785 -1.107826 -0.588922 9 9 9
3.027850 -1.459810 0.176163 47 47 47
2.451070 -1.181728 -0.528923 9 9 9
3.207116 -1.546239 0.311495 17 17 17
2.633465 -1.269666 -0.463046 8 8 8
2.843110 -1.370742 -0.387545 8 8 8
2.886135 -1.391485 0.507473 49 49 49
3.056362 -1.473556 -0.296852 7 7 7
3.346287 -1.613337 -0.194690 7 7 7
3.988211 -1.922827 1.022178 38 38 38
2.925269 -1.410353 -0.056685 1 1 1
1.310342 -0.631752 0.389781 0 0 0
2.141814 -1.051119 -0.639283 10 10 10
2.272501 -1.115255 -0.584423 9 9 9
3.024757 -1.484433 0.176582 42 42 42
2.440998 -1.197946 -0.528541 9 9 9
3.165837 -1.553669 0.308531 20 20 20
2.605030 -1.278447 -0.459604 8 8 8
2.942177 -1.443905 0.402413 5 5 5
2.810305 -1.379188 -0.384376 8 8 8
2.872804 -1.409860 0.506848 46 46 46
3.042423 -1.493102 -0.296504 7 7 7
2.862224 -1.404668 0.619748 1 1 1
3.309841 -1.624341 -0.193224 9 9 9
4.294834 -2.107737 1.104510 66 66 66
2.915351 -1.430740 -0.056685 1 1 1
4.262817 -2.092024 1.272354 1 1 1
2.148751 -1.054523 -0.641354 10 10 10
2.267253 -1.112679 -0.583073 9 9 9
3.010413 -1.477393 0.175744 30 30 30
2.426898 -1.191027 -0.525488 9 9 9
3.147951 -1.544891 0.306788 23 23 23
2.592617 -1.272355 -0.457414 8 8 8
2.790702 -1.369568 -0.381695 8 8 8
2.876350 -1.411600 0.507473 31 31 31
3.029902 -1.486958 -0.295284 7 7 7
2.865749 -1.406398 0.620511 12 12 12
3.288325 -1.613781 -0.191968 7 7 7
4.310579 -2.115464 1.108559 100 100 100
2.908171 -1.427216 -0.056546 1 1 1
4.247208 -2.084364 1.267696 8 8 8
2.126153 -1.060987 -0.636695 10 10 10
3.984737 -1.988453 0.077733 4 4 4
2.259823 -1.127691 -0.583073 9 9 9
2.998761 -1.496435 0.175639 7 7 7
2.390839 -1.193070 -0.519382 9 9 9
3.101980 -1.547943 0.303302 17 17 17
2.575283 -1.285112 -0.455850 9 9 9
2.932536 -1.463387 0.402413 54 54 54
2.767348 -1.380955 -0.379745 8 8 8
3.000364 -1.497234 -0.293366 7 7 7
2.858115 -1.426249 0.620892 20 20 20
3.265040 -1.629312 -0.191236 8 8 8
4.277274 -2.134435 1.103610 94 94 94
2.873591 -1.433972 -0.056057 2 2 2
2.114053 -1.054949 -0.633071 10 10 10
3.961476 -1.976846 0.077279 4 4 4
2.251105 -1.123341 -0.580824 9 9 9
2.389082 -1.192194 -0.519000 9 9 9
3.084153 -1.539046 0.301559 25 25 25
2.573516 -1.284230 -0.455537 8 8 8
2.939641 -1.466932 0.403388 57 57 57
2.763795 -1.379182 -0.379257 8 8 8
2.977188 -1.485669 -0.291100 7 7 7
2.865142 -1.429756 0.622419 23 23 23
3.248956 -1.621286 -0.190294 6 6 6
4.284248 -2.137915 1.105409 94 94 94
2.866434 -1.430401 -0.055918 2 2 2
4.210819 -2.101273 1.260966 100 100 100
2.095929 -1.065166 -0.629966 10 10 10
3.920138 -1.992242 0.076756 4 4 4
2.242810 -1.139812 -0.580824 10 10 10
3.026883 -1.538283 0.177942 1 1 1
2.373278 -1.206117 -0.517474 9 9 9
3.047922 -1.548975 0.299119 21 21 21
2.542901 -1.292320 -0.451783 8 8 8
2.932348 -1.490240 0.403875 51 51 51
2.748302 -1.396707 -0.378526 8 8 8
2.969066 -1.508900 0.527497 1 1 1
2.952008 -1.500231 -0.289706 7 7 7
2.863335 -1.455167 0.624327 20 20 20
3.220960 -1.636915 -0.189351 5 5 5
4.277148 -2.173677 1.107659 98 98 98
2.873698 -1.460434 -0.056267 1 1 1
4.198748 -2.133833 1.262002 111 111 111
2.099374 -1.066917 -0.631001 10 10 10
3.879136 -1.971405 0.075953 3 3 3
2.221963 -1.129217 -0.575425 10 10 10
3.017980 -1.533759 0.177419 1 1 1
2.368027 -1.203448 -0.516329 9 9 9
3.033712 -1.541754 0.297724 25 25 25
2.528813 -1.285161 -0.449280 8 8 8
2.944736 -1.496536 0.405581 10 10 10
2.734145 -1.389512 -0.376576 8 8 8
2.969066 -1.508900 0.527497 1 1 1
2.936023 -1.492107 -0.288137 7 7 7
2.886088 -1.466730 0.629288 12 12 12
3.058932 -1.554571 -0.179826 1 1 1
4.278885 -2.174560 1.108109 100 100 100
2.916483 -1.482177 -0.057104 1 1 1
4.215970 -2.142586 1.267178 120 120 120
2.081578 -1.076224 -0.627895 10 10 10
3.808437 -1.969049 0.074836 1 1 1
2.210563 -1.142912 -0.574525 10 10 10
2.984135 -1.542866 0.176058 2 2 2
2.359568 -1.219951 -0.516329 9 9 9
3.031724 -1.567471 0.298596 31 31 31
2.514515 -1.300062 -0.448341 9 9 9
2.703217 -1.397625 -0.373651 10 10 10
3.004082 -1.553179 0.535632 1 1 1
2.929074 -1.514398 -0.288486 7 7 7
2.905425 -1.502171 0.635776 10 10 10
2.959297 -1.530024 -0.174593 1 1 1
4.256676 -2.200799 1.106309 100 100 100
4.204341 -2.173741 1.268213 119 119 119
2.074714 -1.072675 -0.625824 10 10 10
3.783568 -1.956191 0.074347 4 4 4
2.200177 -1.137542 -0.571826 10 10 10
2.985909 -1.543784 0.176163 4 4 4
2.338640 -1.209131 -0.511750 9 9 9
2.999867 -1.551000 0.295458 30 30 30
2.503987 -1.294618 -0.446464 9 9 9
2.969483 -1.535291 0.410456 1 1 1
2.689111 -1.390332 -0.371701 10 10 10
2.983025 -1.542292 0.531877 1 1 1
2.907836 -1.503418 -0.286394 7 7 7
2.947280 -1.523811 0.644934 3 3 3
2.898976 -1.498837 -0.171034 1 1 1
4.251483 -2.198114 1.104960 100 100 100
3.435409 -1.776185 -0.067506 2 2 2
4.200909 -2.171966 1.267178 120 120 120
2.056916 -1.081737 -0.622719 11 11 11
3.769819 -1.982558 0.074347 4 4 4
2.190457 -1.151967 -0.571376 11 11 11
2.978594 -1.566451 0.176372 3 3 3
2.319717 -1.219945 -0.509460 9 9 9
2.960752 -1.557067 0.292669 46 46 46
2.491391 -1.310229 -0.445838 9 9 9
2.958693 -1.555984 0.410456 1 1 1
2.677582 -1.408147 -0.371458 10 10 10
3.007152 -1.581469 0.538135 1 1 1
2.876108 -1.512553 -0.284302 7 7 7
4.300598 -2.261696 0.944505 7 7 7
2.874299 -1.511602 -0.170197 1 1 1
4.239483 -2.229555 1.105859 100 100 100
3.408766 -1.792679 -0.067227 5 5 5
4.178804 -2.197644 1.265107 119 119 119
2.048367 -1.077241 -0.620130 11 11 11
3.755660 -1.975112 0.074068 4 4 4
2.178384 -1.145618 -0.568226 11 11 11
2.983898 -1.569240 0.176686 3 3 3
2.316241 -1.218117 -0.508697 9 9 9
2.957225 -1.555212 0.292320 62 62 62
2.473907 -1.301034 -0.442710 9 9 9
2.997346 -1.576312 0.415818 1 1 1
2.658255 -1.397984 -0.368777 10 10 10
4.346384 -2.285775 0.777792 1 1 1
2.865528 -1.506989 -0.283256 7 7 7
2.891977 -1.520898 -0.171243 1 1 1
4.248107 -2.234090 1.108109 100 100 100
3.394607 -1.785233 -0.066947 5 5 5
4.175385 -2.195846 1.264072 83 83 83
2.037769 -1.088982 -0.619095 11 11 11
3.731896 -1.994321 0.073859 6 6 6
2.153551 -1.150855 -0.563727 11 11 11
2.980471 -1.592760 0.177105 4 4 4
2.302917 -1.230676 -0.507552 9 9 9
2.941574 -1.571974 0.291797 67 67 67
2.454771 -1.311827 -0.440832 9 9 9
2.993828 -1.599899 0.416793 1 1 1
2.650676 -1.416518 -0.369020 10 10 10
4.338098 -2.318275 0.779044 6 6 6
2.844927 -1.520326 -0.282210 7 7 7
4.273383 -2.283691 0.941833 100 100 100
2.897680 -1.548517 -0.172185 1 1 1
4.228040 -2.259460 1.106759 94 94 94
3.373874 -1.802995 -0.066773 5 5 5
4.169249 -2.228042 1.266660 11 11 11
2.034362 -1.087161 -0.618060 11 11 11
3.710733 -1.983012 0.073440 6 6 6
2.143238 -1.145344 -0.561028 11 11 11
2.961094 -1.582405 0.175953 3 3 3
2.292528 -1.225124 -0.505262 9 9 9
2.941574 -1.571974 0.291797 55 55 55
2.446060 -1.307172 -0.439268 9 9 9
3.063859 -1.637323 0.426543 1 1 1
2.627916 -1.404355 -0.365852 10 10 10
2.827355 -1.510936 -0.280467 7 7 7
4.273383 -2.283691 0.941833 89 89 89
2.938194 -1.570168 -0.174593 1 1 1
4.214290 -2.252112 1.103160 96 96 96
3.359765 -1.795455 -0.066494 5 5 5
2.023328 -1.099492 -0.617025 11 11 11
3.679228 -1.999321 0.073091 6 6 6
2.126629 -1.155627 -0.558778 10 10 10
2.946465 -1.601132 0.175744 3 3 3
2.273569 -1.235475 -0.502973 9 9 9
2.436875 -1.324217 -0.439268 9 9 9
3.024447 -1.643508 0.422643 1 1 1
2.604094 -1.415085 -0.363902 9 9 9
4.307922 -2.340958 0.776541 70 70 70
2.813237 -1.528735 -0.280119 7 7 7
4.260786 -2.315344 0.942596 91 91 91
2.979808 -1.619251 -0.177733 1 1 1
4.205314 -2.285200 1.104960 100 100 100
3.308494 -1.797861 -0.065726 5 5 5
1.997866 -1.085656 -0.609260 11 11 11
3.652872 -1.984999 0.072567 4 4 4
2.131766 -1.158418 -0.560128 11 11 11
2.965769 -1.611622 0.176896 3 3 3
2.266669 -1.231725 -0.501446 9 9 9
2.429932 -1.320444 -0.438017 9 9 9
4.367483 -2.373324 0.610322 1 1 1
2.597117 -1.411294 -0.362927 9 9 9
4.316601 -2.345674 0.778105 96 96 96
2.785227 -1.513514 -0.277330 7 7 7
4.257336 -2.313469 0.941833 91 91 91
3.034209 -1.648813 -0.180978 5 5 5
4.198465 -2.281479 1.103160 100 100 100
3.294438 -1.790223 -0.065447 5 5 5
1.985165 -1.096774 -0.607707 11 11 11
3.610920 -1.994980 0.072009 4 4 4
2.116803 -1.169503 -0.558329 11 11 11
2.956193 -1.633253 0.177000 1 1 1
2.247704 -1.241823 -0.499156 9 9 9
2.969913 -1.640833 0.296852 1 1 1
2.399906 -1.325912 -0.434262 9 9 9
4.349070 -2.402797 0.610078 11 11 11
2.578514 -1.424591 -0.361708 9 9 9
4.288016 -2.369066 0.775915 81 81 81
2.764129 -1.527140 -0.276284 7 7 7
4.234207 -2.339337 0.940307 91 91 91
3.017380 -1.667058 -0.180664 8 8 8
4.192670 -2.316388 1.105859 96 96 96
3.271357 -1.807376 -0.065237 6 6 6
1.181968 -0.653020 0.361829 0 0 0
1.995311 -1.102380 -0.610813 11 11 11
3.593417 -1.985310 0.071660 4 4 4
2.098041 -1.159136 -0.553380 10 10 10
2.985913 -1.649673 0.178780 1 1 1
2.247704 -1.241823 -0.499156 9 9 9
3.053621 -1.687081 0.305219 1 1 1
2.392990 -1.322091 -0.433011 9 9 9
2.562876 -1.415951 -0.359515 9 9 9
4.294933 -2.372887 0.777166 87 87 87
2.753666 -1.521359 -0.275238 7 7 7
4.230770 -2.337438 0.939543 89 89 89
2.985913 -1.649673 -0.178780 8 8 8
4.189258 -2.314503 1.104960 100 100 100
3.246853 -1.793838 -0.064748 6 6 6
1.185350 -0.654888 0.362864 0 0 0
1.974091 -1.108715 -0.606672 11 11 11
3.555060 -1.996639 0.071171 6 6 6
2.076304 -1.166121 -0.549780 11 11 11
3.935580 -2.210351 0.236559 4 4 4
2.221862 -1.247871 -0.495340 9 9 9
3.090410 -1.735676 0.310100 1 1 1
2.380257 -1.336831 -0.432385 9 9 9
4.328728 -2.431156 0.609590 79 79 79
2.535620 -1.424088 -0.357077 9 9 9
4.281707 -2.404747 0.777792 87 87 87
2.732554 -1.534692 -0.274192 7 7 7
4.221196 -2.370763 0.941070 91 91 91
2.960392 -1.662653 -0.177942 8 8 8
4.171299 -2.342739 1.104510 84 84 84
3.230763 -1.814503 -0.064679 5 5 5
1.187487 -0.666932 0.364935 0 0 0
1.970723 -1.106823 -0.605637 11 11 11
3.544599 -1.990763 0.070961 6 6 6
2.074605 -1.165167 -0.549330 11 11 11
3.916424 -2.199593 0.235407 4 4 4
2.211592 -1.242103 -0.493050 10 10 10
3.090410 -1.735676 0.310100 1 1 1
2.359589 -1.325223 -0.428630 9 9 9
4.332189 -2.433100 0.610078 74 74 74
2.532159 -1.422144 -0.356590 9 9 9
4.269650 -2.397976 0.775602 75 75 75
2.722131 -1.528839 -0.273146 7 7 7
4.238314 -2.380376 0.944886 38 38 38
2.939495 -1.650917 -0.176686 8 8 8
3.195893 -1.794919 -0.063981 6 6 6
1.174012 -0.659364 0.360794 0 0 0
1.942815 -1.109061 -0.599425 11 11 11
3.506301 -2.001581 0.070473 6 6 6
2.066420 -1.179622 -0.549330 11 11 11
3.869751 -2.209058 0.233523 4 4 4
2.185816 -1.247779 -0.489234 10 10 10
2.357142 -1.345581 -0.429882 9 9 9
4.315098 -2.463285 0.610078 70 70 70
2.513549 -1.434866 -0.355371 9 9 9
2.690628 -1.535952 -0.271054 7 7 7
2.922694 -1.668428 -0.176372 8 8 8
3.172864 -1.811238 -0.063771 5 5 5
1.159314 -0.661797 0.357688 0 0 0
1.942815 -1.109061 -0.599425 9 9 9
3.478515 -1.985719 0.069914 4 4 4
2.064728 -1.178655 -0.548881 11 11 11
3.850671 -2.198166 0.232372 4 4 4
2.197751 -1.254592 -0.491906 9 9 9
1.219867 -0.696364 0.122890 1 1 1
2.334840 -1.332850 -0.425815 9 9 9
2.506653 -1.430929 -0.354396 9 9 9
2.680246 -1.530026 -0.270008 7 7 7
2.915756 -1.664467 -0.175953 8 8 8
3.160708 -1.804298 -0.063527 5 5 5
1.154280 -0.658924 0.356135 1 1 1
1.930012 -1.119689 -0.597872 10 10 10
3.459378 -2.006945 0.069810 6 6 6
2.034536 -1.180328 -0.543032 11 11 11
3.821411 -2.216977 0.231534 3 3 3
2.173656 -1.261038 -0.488471 9 9 9
1.220146 -0.707863 0.123413 1 1 1
2.311809 -1.341187 -0.423312 9 9 9
1.200223 -0.696305 0.170373 5 5 5
2.486300 -1.442417 -0.352934 10 10 10
1.214853 -0.704792 0.222450 1 1 1
2.662606 -1.544701 -0.269311 7 7 7
1.241361 -0.720171 0.278963 1 1 1
2.879879 -1.670751 -0.174488 8 8 8
1.230498 -0.713869 0.328429 1 1 1
3.135926 -1.819296 -0.063282 6 6 6
1.168033 -0.677630 0.361829 1 1 1
1.933354 -1.121628 -0.598907 10 10 10
3.436892 -1.993900 0.069356 5 5 5
2.027794 -1.176417 -0.541232 11 11 11
3.809318 -2.209961 0.230802 1 1 1
2.165165 -1.256112 -0.486563 10 10 10
1.209805 -0.701864 0.122367 4 4 4
2.303266 -1.336231 -0.421747 9 9 9
1.203658 -0.698297 0.170861 6 6 6
2.474280 -1.435444 -0.351227 10 10 10
1.201184 -0.696862 0.219947 1 1 1
2.652266 -1.538702 -0.268265 9 9 9
1.212492 -0.703423 0.272475 1 1 1
2.864331 -1.661730 -0.173546 7 7 7
1.183301 -0.686488 0.315831 1 1 1
3.125548 -1.813275 -0.063073 7 7 7
1.176388 -0.682477 0.364417 5 5 5
1.911966 -1.127583 -0.594766 10 10 10
3.417369 -2.015395 0.069251 2 2 2
2.015966 -1.188917 -0.540332 12 12 12
1.209417 -0.713254 0.073584 5 5 5
2.140901 -1.262598 -0.483128 9 9 9
1.220198 -0.719612 0.123935 4 4 4
2.293645 -1.352678 -0.421747 9 9 9
1.208889 -0.712943 0.172323 7 7 7
2.450266 -1.445046 -0.349278 10 10 10
1.172345 -0.691391 0.215567 1 1 1
2.632606 -1.552581 -0.267394 9 9 9
1.197281 -0.706097 0.270186 2 2 2
2.854087 -1.683199 -0.173651 7 7 7
1.173323 -0.691968 0.314482 2 2 2
3.083211 -1.818325 -0.062480 5 5 5
1.896990 -1.118751 -0.590107 12 12 12
1.212615 -0.715140 0.024573 1 1 1
2.026038 -1.194857 -0.543032 11 11 11
1.209417 -0.713254 0.073584 5 5 5
2.127373 -1.254619 -0.480075 9 9 9
1.206468 -0.711515 0.122541 3 3 3
2.285137 -1.347661 -0.420183 9 9 9
1.214019 -0.715968 0.173054 17 17 17
2.445136 -1.442020 -0.348546 9 9 9
1.187659 -0.700422 0.218383 1 1 1
2.617161 -1.543472 -0.265825 9 9 9
1.187135 -0.700113 0.267896 2 2 2
2.848926 -1.680155 -0.173337 7 7 7
1.171644 -0.690978 0.314032 3 3 3
1.219505 -0.719203 -0.024713 1 1 1
1.143186 -0.674194 0.355617 84 84 84
1.889331 -1.131637 -0.590107 11 11 11
1.211150 -0.725433 0.024643 1 1 1
2.006155 -1.201610 -0.539883 12 12 12
1.209674 -0.724549 0.073898 2 2 2
2.115415 -1.267053 -0.479312 9 9 9
1.199888 -0.718687 0.122367 3 3 3
2.255575 -1.351004 -0.416429 9 9 9
1.205711 -0.722175 0.172567 34 34 34
2.423344 -1.451490 -0.346840 10 10 10
1.209978 -0.724731 0.223388 5 5 5
2.589502 -1.551013 -0.264082 9 9 9
1.148657 -0.688002 0.260263 1 1 1
2.808295 -1.682062 -0.171557 1 1 1
1.175273 -0.703943 0.316281 4 4 4
1.207719 -0.723378 -0.024573 1 1 1
1.155143 -0.691887 0.360794 36 36 36
1.886016 -1.129652 -0.589072 11 11 11
1.224874 -0.733653 0.024922 1 1 1
1.996125 -1.195602 -0.537183 12 12 12
1.216528 -0.728654 0.074317 5 5 5
2.113731 -1.266044 -0.478931 11 11 11
1.213562 -0.726877 0.123761 9 9 9
2.258965 -1.353034 -0.417054 6 6 6
1.204008 -0.721155 0.172323 50 50 50
2.418235 -1.448430 -0.346109 9 9 9
1.206589 -0.722701 0.222763 13 13 13
1.168868 -0.700107 0.264843 1 1 1
1.257650 -0.753284 -0.076829 2 2 2
1.175273 -0.703943 0.316281 3 3 3
1.235167 -0.739818 -0.025131 1 1 1
1.156801 -0.692880 0.361311 17 17 17
1.881384 -1.144799 -0.590107 12 12 12
1.224847 -0.745305 0.025027 4 4 4
1.971081 -1.199379 -0.532684 12 12 12
1.202880 -0.731938 0.073794 21 21 21
2.104841 -1.280770 -0.478931 8 8 8
1.211862 -0.737403 0.124110 45 45 45
2.399585 -1.460118 -0.344890 2 2 2
1.191389 -0.724946 0.220885 15 15 15
1.244201 -0.757081 -0.127422 1 1 1
1.162275 -0.707230 0.264461 4 4 4
1.276248 -0.776581 -0.078295 2 2 2
1.152017 -0.700988 0.311332 4 4 4
1.233389 -0.750502 -0.025201 2 2 2
1.145334 -0.696922 0.359241 16 16 16
1.874783 -1.140783 -0.588037 11 11 11
1.235097 -0.751541 0.025236 13 13 13
1.976076 -1.202418 -0.534034 13 13 13
1.207999 -0.735053 0.074108 42 42 42
2.088069 -1.270564 -0.475114 2 2 2
1.279140 -0.778341 -0.237155 1 1 1
1.197249 -0.728511 0.172080 71 71 71
1.288823 -0.784233 -0.185241 1 1 1
1.245903 -0.758117 -0.127596 1 1 1
1.170660 -0.712333 0.266369 5 5 5
1.231886 -0.749588 -0.075573 4 4 4
1.162006 -0.707066 0.314032 5 5 5
1.219722 -0.742186 -0.024922 7 7 7
4.054879 -2.467344 1.271837 19 19 19
1.853827 -1.145394 -0.583896 11 11 11
1.231654 -0.760982 0.025271 60 60 60
1.956241 -1.208671 -0.530884 12 12 12
1.202968 -0.743258 0.074108 74 74 74
1.247623 -0.770849 -0.285069 1 1 1
1.196645 -0.739351 0.123064 100 100 100
1.246924 -0.770417 -0.232149 3 3 3
1.244614 -0.768989 -0.179635 1 1 1
1.191468 -0.736153 0.221824 1 1 1
1.235629 -0.763438 -0.127073 3 3 3
1.172465 -0.724412 0.267896 5 5 5
1.238649 -0.765304 -0.076306 19 19 19
1.157166 -0.714959 0.314032 5 5 5
1.211240 -0.748369 -0.024852 15 15 15
4.008408 -2.476610 1.262519 46 46 46
1.847253 -1.141332 -0.581825 12 12 12
1.209539 -0.747318 0.024817 72 72 72
1.961214 -1.211743 -0.532234 10 10 10
1.206366 -0.745358 0.074317 78 78 78
1.252634 -0.773945 -0.286213 1 1 1
1.246924 -0.770417 -0.232149 3 3 3
4.245534 -2.623119 0.612759 2 2 2
1.249680 -0.772119 -0.180367 3 3 3
1.193149 -0.737191 0.222137 6 6 6
1.228849 -0.759249 -0.126376 7 7 7
1.170795 -0.723380 0.267514 4 4 4
1.231853 -0.761105 -0.075887 34 34 34
1.162140 -0.718032 0.315381 2 2 2
1.218045 -0.752573 -0.024992 47 47 47
4.001834 -2.472548 1.260449 100 100 100
1.832695 -1.150093 -0.579755 12 12 12
1.265493 -0.794150 -0.290411 2 2 2
1.236496 -0.775953 -0.231210 2 2 2
4.213666 -2.644253 0.610809 9 9 9
1.237533 -0.776604 -0.179392 10 10 10
1.186300 -0.744453 0.221824 11 11 11
1.218456 -0.764632 -0.125853 15 15 15
1.160728 -0.728405 0.266369 4 4 4
1.234968 -0.774994 -0.076410 61 61 61
1.148845 -0.720949 0.313132 1 1 1
1.221230 -0.766373 -0.025166 11 11 11
3.999202 -2.509667 1.265107 111 111 111
1.837604 -1.153174 -0.581308 8 8 8
1.275945 -0.800709 -0.347774 1 1 1
1.270481 -0.797280 -0.291556 4 4 4
3.965888 -2.488762 0.409632 5 5 5
1.233150 -0.773853 -0.230584 1 1 1
4.210303 -2.642142 0.610322 11 11 11
1.220719 -0.766052 -0.176954 16 16 16
4.167945 -2.615561 0.779357 27 27 27
1.233644 -0.774164 -0.127422 13 13 13
1.190661 -0.747190 0.273238 6 6 6
1.214667 -0.762255 -0.075154 9 9 9
1.152147 -0.723020 0.314032 1 1 1
1.217842 -0.764247 -0.025097 2 2 2
4.005747 -2.513775 1.267178 122 122 122
3.149730 -2.008145 0.065202 5 5 5
1.270182 -0.809819 -0.347774 8 8 8
3.454082 -2.202188 0.214682 4 4 4
1.243223 -0.792631 -0.286595 8 8 8
3.870698 -2.467806 0.401614 4 4 4
1.239240 -0.790091 -0.232774 1 1 1
4.194637 -2.674337 0.610809 11 11 11
1.230271 -0.784373 -0.179148 15 15 15
4.129134 -2.632576 0.775602 3 3 3
1.239833 -0.790469 -0.128642 3 3 3
1.183628 -0.754635 0.272857 23 23 23
1.207497 -0.769853 -0.075050 2 2 2
1.146943 -0.731246 0.314032 1 1 1
2.869829 -1.829691 -0.059408 3 3 3
3.994172 -2.546529 1.269249 119 119 119
1.265690 -0.806955 -0.402205 7 7 7
3.137927 -2.000620 0.064958 5 5 5
1.276755 -0.814009 -0.349574 14 14 14
3.440609 -2.193599 0.213845 4 4 4
1.241568 -0.791575 -0.286213 6 6 6
3.855578 -2.458167 0.400045 4 4 4
1.254231 -0.799649 -0.235590 2 2 2
4.199658 -2.677539 0.611540 11 11 11
1.230271 -0.784373 -0.179148 3 3 3
1.194268 -0.761419 0.224327 1 1 1
1.207913 -0.770118 -0.125330 1 1 1
2.647400 -1.687879 -0.164544 7 7 7
1.156802 -0.737532 0.316731 3 3 3
2.851281 -1.817866 -0.059024 6 6 6
3.987657 -2.542375 1.267178 120 120 120
1.258546 -0.814502 -0.401687 16 16 16
3.107448 -2.011068 0.064609 6 6 6
1.261368 -0.816328 -0.346875 3 3 3
3.413861 -2.209371 0.213112 5 5 5
1.232855 -0.797875 -0.285450 2 2 2
3.837084 -2.483271 0.399871 6 6 6
1.220566 -0.789922 -0.230272 4 4 4
4.183002 -2.707141 0.611784 13 13 13
1.233236 -0.798121 -0.180367 1 1 1
1.192374 -0.771677 0.224953 1 1 1
2.425358 -1.569635 -0.252752 6 6 6
1.171871 -0.758408 0.271330 76 76 76
2.637526 -1.706945 -0.164649 8 8 8
1.150119 -0.744330 0.316281 3 3 3
2.837162 -1.836145 -0.058989 7 7 7
3.967015 -2.567360 1.266143 122 122 122
1.265034 -0.818700 -0.403758 11 11 11
