0.529318 -3.541750 0.187677 100 100 100
0.345323 -2.310611 -0.454125 20 20 20
0.519487 -3.475970 0.307485 100 100 100
0.366142 -2.449913 -0.392338 14 14 14
0.516998 -3.459313 0.429468 100 100 100
0.393470 -2.632769 -0.326854 13 13 13
0.508628 -3.403309 0.545018 100 100 100
0.419359 -2.805999 -0.248220 10 10 10
0.502315 -3.361065 0.660581 100 100 100
0.454334 -3.040019 -0.161090 10 10 10
0.495432 -3.315016 0.773832 100 100 100
0.494791 -3.310721 -0.058431 12 12 12
0.488283 -3.267181 0.885161 100 100 100
0.292615 -2.056022 -0.556461 23 23 23
0.508012 -3.569482 0.062933 51 51 51
0.309452 -2.174320 -0.507040 20 20 20
0.505142 -3.549314 0.187886 95 95 95
0.329737 -2.316853 -0.454889 19 19 19
0.496331 -3.487402 0.308183 100 100 100
0.347916 -2.444587 -0.391086 13 13 13
0.491436 -3.453012 0.428249 100 100 100
0.374521 -2.631521 -0.326366 13 13 13
0.485413 -3.410688 0.545643 94 94 94
0.398637 -2.800968 -0.247522 10 10 10
0.477731 -3.356715 0.659054 100 100 100
0.431411 -3.031253 -0.160462 9 9 9
0.472277 -3.318394 0.773832 100 100 100
0.472793 -3.322013 -0.058570 13 13 13
0.467096 -3.281985 0.888267 100 100 100
0.292071 -2.052197 -0.555426 23 23 23
0.509421 -3.579380 0.063108 27 27 27
0.308353 -2.166603 -0.505240 19 19 19
0.504579 -3.545359 0.187677 100 100 100
0.329184 -2.312965 -0.454125 18 18 18
0.497454 -3.495292 0.308880 100 100 100
0.347360 -2.440676 -0.390460 13 13 13
0.491996 -3.456942 0.428736 100 100 100
0.371444 -2.609903 -0.323685 13 13 13
0.484856 -3.406777 0.545018 87 87 87
0.398637 -2.800968 -0.247522 10 10 10
0.478838 -3.364490 0.660581 100 100 100
0.429160 -3.015434 -0.159625 9 9 9
0.471454 -3.312606 0.772482 100 100 100
0.468848 -3.294297 -0.058082 10 10 10
0.468729 -3.293461 0.891373 100 100 100
0.278255 -2.058015 -0.556461 24 24 24
0.484152 -3.580868 0.063073 20 20 20
0.293220 -2.168702 -0.505240 17 17 17
0.479281 -3.544837 0.187467 100 100 100
0.311450 -2.303534 -0.451836 19 19 19
0.474108 -3.506578 0.309577 100 100 100
0.331371 -2.450872 -0.391712 14 14 14
0.468116 -3.462260 0.428980 100 100 100
0.353215 -2.612432 -0.323685 12 12 12
0.462649 -3.421824 0.546895 96 96 96
0.379607 -2.807632 -0.247871 10 10 10
0.456390 -3.375533 0.662107 100 100 100
0.407563 -3.014398 -0.159415 9 9 9
0.447533 -3.310023 0.771132 100 100 100
0.442355 -3.271728 -0.057628 11 11 11
0.445207 -3.292824 0.890338 100 100 100
0.276184 -2.042700 -0.552320 23 23 23
0.484688 -3.584831 0.063143 15 15 15
0.293742 -2.172565 -0.506140 21 21 21
0.479816 -3.548796 0.187677 100 100 100
0.310661 -2.297697 -0.450691 20 20 20
0.473841 -3.504603 0.309403 100 100 100
0.331371 -2.450872 -0.391712 15 15 15
0.469180 -3.470129 0.429955 100 100 100
0.352683 -2.608498 -0.323197 12 12 12
0.461061 -3.410078 0.545018 94 94 94
0.376136 -2.781964 -0.245605 10 10 10
0.457442 -3.383315 0.663634 100 100 100
0.408633 -3.022315 -0.159834 9 9 9
0.449360 -3.323541 0.774282 100 100 100
0.441015 -3.261820 -0.057453 11 11 11
0.443654 -3.281337 0.887232 100 100 100
0.260935 -2.036913 -0.550249 25 25 25
0.457871 -3.574243 0.062898 11 11 11
0.278568 -2.174563 -0.506140 17 17 17
0.455537 -3.556021 0.187886 100 100 100
0.293864 -2.293968 -0.449546 19 19 19
0.448857 -3.503873 0.309054 100 100 100
0.311241 -2.429613 -0.387957 14 14 14
0.444438 -3.469382 0.429468 100 100 100
0.334716 -2.612866 -0.323441 13 13 13
0.438247 -3.421052 0.546269 85 85 85
0.356452 -2.782546 -0.245431 10 10 10
0.431816 -3.370847 0.660581 100 100 100
0.385493 -3.009246 -0.158997 9 9 9
0.426642 -3.330463 0.775181 100 100 100
0.418741 -3.268786 -0.057523 12 12 12
0.420245 -3.280522 0.886196 100 100 100
0.261426 -2.040745 -0.551285 25 25 25
0.456601 -3.564326 0.062724 11 11 11
0.277330 -2.164898 -0.503890 19 19 19
0.456552 -3.563945 0.188305 100 100 100
0.294363 -2.297862 -0.450309 19 19 19
0.449869 -3.511778 0.309752 100 100 100
0.310739 -2.425694 -0.387332 14 14 14
0.444690 -3.471351 0.429711 100 100 100
0.333455 -2.603021 -0.322223 13 13 13
0.441008 -3.442605 0.549711 100 100 100
0.356199 -2.780570 -0.245256 10 10 10
0.431317 -3.366953 0.659818 100 100 100
0.384478 -3.001321 -0.158578 9 9 9
0.427137 -3.334329 0.776081 100 100 100
0.418741 -3.268786 -0.057523 12 12 12
0.421226 -3.288187 0.888267 100 100 100
0.247994 -2.046313 -0.552320 23 23 23
0.431847 -3.563381 0.062654 9 9 9
0.261181 -2.155128 -0.501191 19 19 19
0.431802 -3.563005 0.188095 100 100 100
0.279188 -2.303711 -0.451072 20 20 20
0.425955 -3.514759 0.309752 100 100 100
0.295171 -2.435597 -0.388583 19 19 19
0.420335 -3.468385 0.428980 100 100 100
0.314057 -2.591435 -0.320516 13 13 13
0.414475 -3.420033 0.545643 100 100 100
0.337744 -2.786886 -0.245605 10 10 10
0.409806 -3.381505 0.662107 100 100 100
0.361157 -2.980076 -0.157322 9 9 9
0.403963 -3.333290 0.775181 100 100 100
0.395519 -3.263620 -0.057384 11 11 11
0.399765 -3.298649 0.890338 100 100 100
0.247529 -2.042478 -0.551285 23 23 23
0.430885 -3.555440 0.062515 9 9 9
0.261650 -2.158997 -0.502091 20 20 20
0.430841 -3.555074 0.187677 100 100 100
0.277298 -2.288119 -0.448020 21 21 21
0.427154 -3.524649 0.310623 100 100 100
0.294220 -2.427753 -0.387332 15 15 15
0.421290 -3.476268 0.429955 100 100 100
0.314535 -2.595377 -0.321004 13 13 13
0.414000 -3.416111 0.545018 85 85 85
0.336545 -2.776996 -0.244733 10 10 10
0.410751 -3.389301 0.663634 100 100 100
0.361637 -2.984041 -0.157531 9 9 9
0.402556 -3.321683 0.772482 100 100 100
0.393354 -3.245753 -0.057069 12 12 12
0.400694 -3.306321 0.892408 100 100 100
0.231511 -2.028801 -0.547143 21 21 21
0.404466 -3.544454 0.062270 7 7 7
0.246571 -2.160771 -0.502091 20 20 20
0.406464 -3.561964 0.187886 100 100 100
0.259091 -2.270493 -0.444203 19 19 19
0.400730 -3.511709 0.309229 100 100 100
0.277264 -2.429748 -0.387332 14 14 14
0.397011 -3.479124 0.429955 100 100 100
0.295958 -2.593565 -0.320516 11 11 11
0.391485 -3.430694 0.546895 92 92 92
0.314891 -2.759482 -0.242990 10 10 10
0.386189 -3.384283 0.662107 100 100 100
0.341249 -2.990462 -0.157741 10 10 10
0.381124 -3.339902 0.776081 100 100 100
0.368191 -3.226566 -0.056685 10 10 10
0.376288 -3.297521 0.889302 100 100 100
0.231073 -2.024962 -0.546108 24 24 24
0.402652 -3.528559 0.061991 7 7 7
0.245687 -2.153026 -0.500291 18 18 18
0.408276 -3.577839 0.188723 100 100 100
0.259982 -2.278296 -0.445730 20 20 20
0.400278 -3.507750 0.308880 100 100 100
0.276816 -2.425823 -0.386706 14 14 14
0.397461 -3.483069 0.430443 100 100 100
0.296183 -2.595537 -0.320760 13 13 13
0.391933 -3.434619 0.547521 96 96 96
0.314214 -2.753544 -0.242467 12 12 12
0.386189 -3.384283 0.662107 100 100 100
0.339890 -2.978556 -0.157113 9 9 9
0.382008 -3.347646 0.777881 100 100 100
0.367964 -3.224579 -0.056651 12 12 12
0.376288 -3.297521 0.889302 100 100 100
0.217398 -2.034247 -0.548179 23 23 23
0.376543 -3.523397 0.061851 7 7 7
0.229860 -2.150854 -0.499391 21 21 21
0.382663 -3.580669 0.188723 100 100 100
0.244507 -2.287906 -0.447256 22 22 22
0.376437 -3.522411 0.309926 100 100 100
0.257771 -2.412028 -0.384203 15 15 15
0.372105 -3.481876 0.429955 100 100 100
0.276759 -2.589695 -0.319785 13 13 13
0.369234 -3.455014 0.550336 100 100 100
0.294502 -2.755722 -0.242467 11 11 11
0.361962 -3.386960 0.662107 100 100 100
0.316870 -2.965024 -0.156275 9 9 9
0.358457 -3.354170 0.778781 100 100 100
0.343818 -3.217188 -0.056476 10 10 10
0.352682 -3.300129 0.889302 100 100 100
0.217604 -2.036168 -0.548696 27 27 27
0.376330 -3.521409 0.061816 9 9 9
0.229446 -2.146979 -0.498492 18 18 18
0.381814 -3.572725 0.188305 100 100 100
0.243255 -2.276193 -0.444967 19 19 19
0.376861 -3.526373 0.310274 100 100 100
0.257771 -2.412028 -0.384203 14 14 14
0.371894 -3.479902 0.429711 100 100 100
0.275493 -2.577851 -0.318323 10 10 10
0.367345 -3.437336 0.547521 92 92 92
0.294925 -2.759684 -0.242816 11 11 11
0.361962 -3.386960 0.662107 100 100 100
0.316233 -2.959066 -0.155961 10 10 10
0.357215 -3.342543 0.776081 100 100 100
0.343818 -3.217188 -0.056476 11 11 11
0.353914 -3.311655 0.892408 100 100 100
0.202616 -2.029949 -0.546626 28 28 28
0.351141 -3.517981 0.061712 9 9 9
0.214065 -2.144650 -0.497592 18 18 18
0.357259 -3.579278 0.188514 100 100 100
0.225798 -2.262208 -0.441914 20 20 20
0.353024 -3.536848 0.310972 100 100 100
0.240926 -2.413769 -0.384203 13 13 13
0.348380 -3.490315 0.430686 100 100 100
0.256109 -2.565885 -0.316617 13 13 13
0.344713 -3.453576 0.549711 100 100 100
0.274069 -2.745815 -0.241421 11 11 11
0.339867 -3.405033 0.665160 100 100 100
0.295766 -2.963189 -0.156066 10 10 10
0.334258 -3.348834 0.776981 100 100 100
0.319364 -3.199611 -0.056127 11 11 11
0.331169 -3.317889 0.893443 100 100 100
0.201848 -2.022259 -0.544555 26 26 26
0.350545 -3.512011 0.061607 9 9 9
0.214839 -2.152406 -0.499391 19 19 19
0.357259 -3.579278 0.188514 100 100 100
0.224823 -2.252440 -0.440006 17 17 17
0.352233 -3.528918 0.310274 100 100 100
0.240534 -2.409837 -0.383577 13 13 13
0.348971 -3.496241 0.431417 100 100 100
0.256109 -2.565885 -0.316617 13 13 13
0.342555 -3.431954 0.546269 94 94 94
0.273475 -2.739868 -0.240898 11 11 11
0.339867 -3.405033 0.665160 100 100 100
0.294972 -2.955240 -0.155647 10 10 10
0.334645 -3.352712 0.777881 100 100 100
0.319364 -3.199611 -0.056127 11 11 11
0.330018 -3.306356 0.890338 100 100 100
0.187194 -2.021728 -0.544038 24 24 24
0.323561 -3.494518 0.061258 6 6 6
0.199072 -2.150008 -0.498492 17 17 17
0.332743 -3.593676 0.189142 100 100 100
0.209243 -2.259856 -0.441150 18 18 18
0.326972 -3.531348 0.310274 100 100 100
0.222737 -2.405596 -0.382639 10 10 10
0.324676 -3.506555 0.432392 100 100 100
0.237742 -2.567652 -0.316617 13 13 13
0.319080 -3.446119 0.548146 100 100 100
0.253862 -2.741755 -0.240898 14 14 14
0.314769 -3.399558 0.663634 100 100 100
0.273633 -2.955286 -0.155542 10 10 10
0.311364 -3.362783 0.779680 100 100 100
0.295354 -3.189868 -0.055918 11 11 11
0.307063 -3.316327 0.892408 100 100 100
0.186838 -2.017881 -0.543002 23 23 23
0.322271 -3.480580 0.061014 9 9 9
0.197634 -2.134484 -0.494892 19 19 19
0.332006 -3.585720 0.188723 66 66 66
0.209605 -2.263765 -0.441914 19 19 19
0.327706 -3.539284 0.310972 100 100 100
0.222008 -2.397728 -0.381387 17 17 17
0.323578 -3.494695 0.430930 100 100 100
0.237742 -2.567652 -0.316617 13 13 13
0.319080 -3.446119 0.548146 100 100 100
0.254046 -2.743738 -0.241073 11 11 11
0.314769 -3.399558 0.663634 100 100 100
0.271792 -2.935398 -0.154496 10 10 10
0.311364 -3.362783 0.779680 100 100 100
0.294985 -3.185885 -0.055848 11 11 11
0.307063 -3.316327 0.892408 100 100 100
0.173075 -2.022986 -0.544038 23 23 23
0.298646 -3.490714 0.061153 10 10 10
0.182064 -2.128045 -0.493093 18 18 18
0.306454 -3.581981 0.188409 46 46 46
0.193628 -2.263218 -0.441532 20 20 20
0.303839 -3.551411 0.311843 100 100 100
0.204759 -2.393315 -0.380449 14 14 14
0.299173 -3.496869 0.430930 100 100 100
0.217949 -2.547493 -0.313935 13 13 13
0.295688 -3.456136 0.549398 100 100 100
0.233866 -2.733534 -0.240027 12 12 12
0.291363 -3.405585 0.664397 100 100 100
0.250612 -2.929264 -0.154077 10 10 10
0.287215 -3.357108 0.777881 100 100 100
0.271884 -3.177905 -0.055673 11 11 11
0.284562 -3.326089 0.894479 100 100 100
0.173240 -2.024911 -0.544555 25 25 25
0.297623 -3.478760 0.060944 9 9 9
0.182728 -2.135812 -0.494892 18 18 18
0.306114 -3.578001 0.188200 18 18 18
0.192624 -2.251481 -0.439242 16 16 16
0.303499 -3.547441 0.311495 100 100 100
0.205095 -2.397251 -0.381074 14 14 14
0.299680 -3.502802 0.431661 100 100 100
0.218288 -2.551448 -0.314423 13 13 13
0.295014 -3.448263 0.548146 97 97 97
0.233526 -2.729564 -0.239678 12 12 12
0.292367 -3.417322 0.666687 100 100 100
0.250441 -2.927274 -0.153972 10 10 10
0.287215 -3.357108 0.777881 100 100 100
0.271884 -3.177905 -0.055673 12 12 12
0.284891 -3.329939 0.895514 100 100 100
0.158089 -2.008710 -0.539897 23 23 23
0.273624 -3.476718 0.060874 10 10 10
0.167880 -2.133121 -0.493993 20 20 20
0.282849 -3.593939 0.188933 12 12 12
0.176832 -2.246868 -0.438097 20 20 20
0.279033 -3.545452 0.311146 100 100 100
0.188463 -2.394653 -0.380449 14 14 14
0.276609 -3.514656 0.432880 100 100 100
0.201071 -2.554854 -0.314667 13 13 13
0.271846 -3.454130 0.548772 100 100 100
0.214004 -2.719173 -0.238632 12 12 12
0.269716 -3.427061 0.668213 100 100 100
0.230197 -2.924929 -0.153763 9 9 9
0.264969 -3.366756 0.779680 100 100 100
0.247736 -3.147785 -0.055115 10 10 10
0.261915 -3.327949 0.894479 100 100 100
0.157483 -2.001006 -0.537826 22 22 22
0.273153 -3.470737 0.060769 11 11 11
0.168186 -2.137006 -0.494892 18 18 18
0.283163 -3.597922 0.189142 11 11 11
0.176678 -2.244911 -0.437716 20 20 20
0.278720 -3.541479 0.310797 100 100 100
0.187843 -2.386776 -0.379197 13 13 13
0.276921 -3.518614 0.433367 100 100 100
0.200604 -2.548917 -0.313935 13 13 13
0.271846 -3.454130 0.548772 94 94 94
0.214629 -2.727118 -0.239330 13 13 13
0.268483 -3.411404 0.665160 100 100 100
0.229884 -2.920947 -0.153554 9 9 9
0.265581 -3.374527 0.781480 100 100 100
0.248991 -3.163734 -0.055394 12 12 12
0.261612 -3.324097 0.893443 100 100 100
0.143509 -2.002057 -0.537826 23 23 23
0.249488 -3.480538 0.060909 12 12 12
0.152427 -2.126466 -0.492193 17 17 17
0.258894 -3.611764 0.189770 10 10 10
0.161282 -2.250006 -0.438479 20 20 20
0.254844 -3.555263 0.311843 100 100 100
0.170046 -2.372267 -0.376694 15 15 15
0.251924 -3.514521 0.432636 100 100 100
0.182805 -2.550255 -0.313935 13 13 13
0.248008 -3.459884 0.549398 100 100 100
0.193875 -2.704702 -0.237238 12 12 12
0.244380 -3.409278 0.664397 100 100 100
0.208629 -2.910528 -0.152926 9 9 9
0.242295 -3.380186 0.782380 100 100 100
0.225898 -3.151433 -0.055150 10 10 10
0.238676 -3.329696 0.894479 100 100 100
0.143785 -2.005911 -0.538861 23 23 23
0.248630 -3.468571 0.060699 13 13 13
0.151870 -2.118691 -0.490393 19 19 19
0.258466 -3.605787 0.189456 11 11 11
0.161002 -2.246090 -0.437716 21 21 21
0.254844 -3.555263 0.311843 100 100 100
0.170611 -2.380148 -0.377946 14 14 14
0.251214 -3.504621 0.431417 100 100 100
0.181669 -2.534415 -0.311986 13 13 13
0.248290 -3.463825 0.550024 92 92 92
0.194730 -2.716626 -0.238284 11 11 11
0.245503 -3.424944 0.667450 100 100 100
0.208201 -2.904551 -0.152612 10 10 10
0.241737 -3.372411 0.780580 100 100 100
0.226183 -3.155422 -0.055219 11 11 11
0.238952 -3.333550 0.895514 100 100 100
0.129778 -2.006866 -0.538861 24 24 24
0.224796 -3.476208 0.060804 13 13 13
0.136823 -2.115810 -0.489493 20 20 20
0.232642 -3.597538 0.188933 10 10 10
0.144557 -2.235404 -0.435426 20 20 20
0.230789 -3.568885 0.312889 100 100 100
0.153226 -2.369454 -0.376068 14 14 14
0.227895 -3.524118 0.433611 100 100 100
0.163715 -2.531660 -0.311498 13 13 13
0.223847 -3.461531 0.549398 97 97 97
0.175117 -2.707978 -0.237412 12 12 12
0.221840 -3.430493 0.668213 100 100 100
0.187789 -2.903941 -0.152507 10 10 10
0.218188 -3.374017 0.780580 100 100 100
0.202730 -3.134973 -0.054835 10 10 10
0.216172 -3.342848 0.897584 100 100 100
0.129280 -1.999154 -0.536791 21 21 21
0.224151 -3.466231 0.060630 12 12 12
0.136572 -2.111921 -0.488594 20 20 20
0.234060 -3.619462 0.190084 10 10 10
0.144430 -2.233445 -0.435045 20 20 20
0.230275 -3.560932 0.312192 100 100 100
0.153481 -2.373396 -0.376694 14 14 14
0.228023 -3.526099 0.433855 100 100 100
0.164099 -2.537603 -0.312229 15 15 15
0.224102 -3.465474 0.550024 100 100 100
0.174217 -2.694060 -0.236192 11 11 11
0.222093 -3.434411 0.668976 100 100 100
0.187789 -2.903941 -0.152507 9 9 9
0.218691 -3.381795 0.782380 97 97 97
0.202342 -3.128987 -0.054731 12 12 12
0.215674 -3.335137 0.895514 100 100 100
0.114875 -1.992294 -0.534720 21 21 21
0.198796 -3.447747 0.060281 12 12 12
0.122273 -2.120605 -0.490393 20 20 20
0.209131 -3.626990 0.190398 10 10 10
0.128835 -2.234399 -0.435045 18 18 18
0.205295 -3.560463 0.312018 100 100 100
0.136680 -2.370466 -0.376068 13 13 13
0.203629 -3.531569 0.434342 100 100 100
0.146151 -2.534723 -0.311742 13 13 13
0.199676 -3.463010 0.549398 90 90 90
0.155176 -2.691233 -0.235843 13 13 13
0.197659 -3.428038 0.667450 100 100 100
0.167282 -2.901193 -0.152298 9 9 9
0.195301 -3.387131 0.783280 97 97 97
0.180493 -3.130323 -0.054731 11 11 11
0.192385 -3.336562 0.895514 100 100 100
0.114875 -1.992294 -0.534720 25 25 25
0.197990 -3.433773 0.060036 12 12 12
0.121376 -2.105040 -0.486794 19 19 19
0.209476 -3.632972 0.190712 10 10 10
0.129061 -2.238319 -0.435808 18 18 18
0.205524 -3.564441 0.312366 100 100 100
0.136453 -2.366521 -0.375443 13 13 13
0.203400 -3.527605 0.433855 100 100 100
0.145923 -2.530759 -0.311254 13 13 13
0.201268 -3.490619 0.553778 100 100 100
0.154946 -2.687255 -0.235495 12 12 12
0.197433 -3.424118 0.666687 96 96 96
0.165902 -2.877266 -0.151042 9 9 9
0.195749 -3.394913 0.785079 91 91 91
0.179803 -3.118345 -0.054521 11 11 11
0.192607 -3.340419 0.896549 100 100 100
0.101311 -1.993029 -0.534720 25 25 25
0.174207 -3.427052 0.059897 12 12 12
0.106847 -2.101925 -0.485894 20 20 20
0.184337 -3.626335 0.190294 11 11 11
0.113623 -2.235224 -0.435045 18 18 18
0.181763 -3.575707 0.313238 100 100 100
0.120141 -2.363450 -0.374817 13 13 13
0.179485 -3.530890 0.434099 100 100 100
0.127887 -2.515834 -0.309304 13 13 13
0.176902 -3.480071 0.551901 100 100 100
0.136955 -2.694217 -0.236018 12 12 12
0.174321 -3.429304 0.667450 96 96 96
0.145908 -2.870350 -0.150623 9 9 9
0.172043 -3.384489 0.782380 97 97 97
0.158674 -3.121494 -0.054556 10 10 10
0.170454 -3.353229 0.899655 100 100 100
0.101507 -1.996888 -0.535755 23 23 23
0.174004 -3.423058 0.059827 13 13 13
0.107045 -2.105818 -0.486794 22 22 22
0.184540 -3.630324 0.190503 12 12 12
0.113025 -2.223460 -0.432755 19 19 19
0.182067 -3.581676 0.313761 100 100 100
0.120542 -2.371341 -0.376068 14 14 14
0.179384 -3.528908 0.433855 100 100 100
0.127786 -2.513851 -0.309061 14 14 14
0.176701 -3.476126 0.551275 97 97 97
0.136651 -2.688247 -0.235495 11 11 11
0.175118 -3.444990 0.670503 100 100 100
0.146111 -2.874339 -0.150832 9 9 9
0.172043 -3.384489 0.782380 97 97 97
0.157761 -3.103520 -0.054242 11 11 11
0.170846 -3.360946 0.901726 100 100 100
0.086541 -1.982123 -0.531614 23 23 23
0.149156 -3.416225 0.059687 9 9 9
0.091888 -2.104583 -0.486344 21 21 21
0.158296 -3.625566 0.190189 12 12 12
0.097111 -2.224211 -0.432755 19 19 19
0.156172 -3.576916 0.313238 100 100 100
0.103053 -2.360302 -0.374191 14 14 14
0.154474 -3.538034 0.434830 100 100 100
0.109794 -2.514701 -0.309061 13 13 13
0.151650 -3.473354 0.550649 97 97 97
0.116890 -2.677213 -0.234449 13 13 13
0.150634 -3.450078 0.671266 100 100 100
0.125539 -2.875311 -0.150832 10 10 10
0.148160 -3.393421 0.784179 100 100 100
0.135112 -3.094580 -0.054068 11 11 11
0.146118 -3.346642 0.897584 100 100 100
0.086373 -1.978263 -0.530579 24 24 24
0.148981 -3.412229 0.059617 18 18 18
0.091803 -2.102636 -0.485894 21 21 21
0.158644 -3.633547 0.190608 12 12 12
0.097197 -2.226173 -0.433136 20 20 20
0.155998 -3.572935 0.312889 100 100 100
0.102536 -2.348461 -0.372314 14 14 14
0.154993 -3.549933 0.436292 100 100 100
0.109967 -2.518668 -0.309548 14 14 14
0.152167 -3.485195 0.552527 100 100 100
0.116368 -2.665270 -0.233403 13 13 13
0.150291 -3.442232 0.669740 100 100 100
0.125713 -2.879302 -0.151042 9 9 9
0.148500 -3.401209 0.785979 93 93 93
0.134938 -3.090584 -0.053998 11 11 11
0.146286 -3.350502 0.898620 100 100 100
0.072702 -1.982679 -0.531614 22 22 22
0.123983 -3.381212 0.059059 9 9 9
0.076693 -2.091541 -0.483195 20 20 20
0.133493 -3.640554 0.190922 12 12 12
0.081581 -2.224835 -0.432755 19 19 19
0.131342 -3.581901 0.313586 100 100 100
0.085921 -2.343197 -0.371375 16 16 16
0.129770 -3.539026 0.434830 100 100 100
0.092381 -2.519374 -0.309548 16 16 16
0.127977 -3.490120 0.553152 97 97 97
0.097904 -2.670000 -0.233752 12 12 12
0.126112 -3.439274 0.668976 100 100 100
0.105023 -2.864142 -0.150204 9 9 9
0.124894 -3.406057 0.786879 100 100 100
0.113065 -3.083458 -0.053858 11 11 11
0.122892 -3.351442 0.898620 100 100 100
0.072772 -1.984610 -0.532132 25 25 25
0.124863 -3.405192 0.059478 18 18 18
0.076479 -2.085699 -0.481845 21 21 21
0.132981 -3.626582 0.190189 12 12 12
0.081509 -2.222873 -0.432373 20 20 20
0.131561 -3.587874 0.314109 100 100 100
0.085776 -2.339249 -0.370750 15 15 15
0.129697 -3.537042 0.434586 100 100 100
0.091436 -2.493585 -0.306380 14 14 14
0.128122 -3.494069 0.553778 100 100 100
0.098050 -2.673982 -0.234100 12 12 12
0.126256 -3.443197 0.669740 100 100 100
0.104584 -2.852166 -0.149576 9 9 9
0.124752 -3.402163 0.785979 100 100 100
0.112772 -3.075464 -0.053719 10 10 10
0.123175 -3.359164 0.900690 93 93 93
0.058915 -1.985069 -0.532132 26 26 26
0.100138 -3.374000 0.058919 10 10 10
0.062205 -2.095921 -0.484095 22 22 22
0.107719 -3.629419 0.190294 13 13 13
0.065290 -2.199839 -0.427794 22 22 22
0.106806 -3.598663 0.314981 100 100 100
0.069443 -2.339791 -0.370750 16 16 16
0.105414 -3.551751 0.436292 100 100 100
0.074261 -2.502100 -0.307354 15 15 15
0.103491 -3.486980 0.552527 90 90 90
0.079203 -2.668627 -0.233577 12 12 12
0.102448 -3.451844 0.671266 100 100 100
0.084670 -2.852827 -0.149576 9 9 9
0.100997 -3.402951 0.785979 93 93 93
0.091061 -3.068181 -0.053579 10 10 10
0.099950 -3.367666 0.902761 100 100 100
0.058400 -1.967690 -0.527473 25 25 25
0.100316 -3.379997 0.059024 13 13 13
0.061974 -2.088130 -0.482295 20 20 20
0.107719 -3.629419 0.190294 11 11 11
0.065057 -2.191990 -0.426267 22 22 22
0.106510 -3.588705 0.314109 96 96 96
0.069736 -2.349664 -0.372314 15 15 15
0.105649 -3.559688 0.437267 100 100 100
0.074202 -2.500115 -0.307111 14 14 14
0.104019 -3.504750 0.555342 100 100 100
0.078671 -2.650703 -0.232009 11 11 11
0.102681 -3.459694 0.672793 100 100 100
0.084433 -2.844841 -0.149157 10 10 10
0.100997 -3.402951 0.785979 97 97 97
0.090824 -3.060186 -0.053439 11 11 11
0.099606 -3.356080 0.899655 96 96 96
0.044574 -1.964187 -0.526438 25 25 25
0.076172 -3.356624 0.058605 13 13 13
0.047572 -2.096305 -0.484095 23 23 23
0.082786 -3.648053 0.191236 11 11 11
0.049975 -2.202204 -0.428175 23 23 23
0.081454 -3.589362 0.314109 100 100 100
0.052928 -2.332319 -0.369498 15 15 15
0.080795 -3.560339 0.437267 100 100 100
0.056791 -2.502557 -0.307354 15 15 15
0.079414 -3.499467 0.554404 97 97 97
0.059802 -2.635253 -0.230614 12 12 12
0.078348 -3.452476 0.671266 100 100 100
0.064525 -2.843365 -0.149053 10 10 10
0.077415 -3.411366 0.787779 100 100 100
0.069503 -3.062745 -0.053474 11 11 11
0.076262 -3.360557 0.900690 96 96 96
0.044617 -1.966119 -0.526956 27 27 27
0.076082 -3.352626 0.058535 11 11 11
0.047218 -2.080719 -0.480495 23 23 23
0.082741 -3.646056 0.191131 10 10 10
0.050020 -2.204167 -0.428557 22 22 22
0.081635 -3.597329 0.314807 100 100 100
0.052883 -2.330345 -0.369185 15 15 15
0.080705 -3.556370 0.436780 100 100 100
0.056611 -2.494619 -0.306380 15 15 15
0.079504 -3.503416 0.555029 94 94 94
0.060028 -2.645212 -0.231486 12 12 12
0.078348 -3.452476 0.671266 100 100 100
0.064344 -2.835378 -0.148634 10 10 10
0.077415 -3.411366 0.787779 100 100 100
0.069413 -3.058746 -0.053404 11 11 11
0.076349 -3.364419 0.901726 100 100 100
0.031295 -1.970240 -0.527991 25 25 25
0.053260 -3.353066 0.058535 11 11 11
0.033085 -2.082940 -0.480945 24 24 24
0.057635 -3.628562 0.190189 10 10 10
0.034953 -2.200531 -0.427794 22 22 22
0.057210 -3.601786 0.315155 100 100 100
0.036894 -2.322750 -0.367934 15 15 15
0.056433 -3.552867 0.436292 100 100 100
0.039283 -2.473113 -0.303698 14 14 14
0.055843 -3.515727 0.556907 97 97 97
0.042117 -2.651536 -0.232009 11 11 11
0.054908 -3.456855 0.672029 100 100 100
0.044789 -2.819774 -0.147797 11 11 11
0.054193 -3.411814 0.787779 100 100 100
0.048464 -3.051150 -0.053265 11 11 11
0.053631 -3.376451 0.904831 100 100 100
0.031264 -1.968309 -0.527473 23 23 23
0.053291 -3.355066 0.058570 12 12 12
0.033054 -2.080992 -0.480495 22 22 22
0.057477 -3.618577 0.189666 9 9 9
0.034703 -2.184827 -0.424741 22 22 22
0.057432 -3.615731 0.316375 100 100 100
0.037051 -2.332626 -0.369498 15 15 15
0.056496 -3.556837 0.436780 100 100 100
0.039125 -2.463189 -0.302480 12 12 12
0.055655 -3.503876 0.555029 100 100 100
0.041768 -2.629622 -0.230091 12 12 12
0.055033 -3.464707 0.673556 100 100 100
0.044725 -2.815780 -0.147587 11 11 11
0.054131 -3.407917 0.786879 97 97 97
0.048273 -3.039154 -0.053055 11 11 11
0.053631 -3.376451 0.904831 100 100 100
0.017419 -1.956888 -0.524367 24 24 24
0.029796 -3.347357 0.058431 11 11 11
0.018491 -2.077275 -0.479596 22 22 22
0.032195 -3.616893 0.189561 7 7 7
0.019415 -2.181089 -0.423978 22 22 22
0.032117 -3.608074 0.315678 100 100 100
0.020642 -2.319000 -0.367308 19 19 19
0.031770 -3.569055 0.438242 100 100 100
0.022016 -2.473327 -0.303698 15 15 15
0.031262 -3.512081 0.556281 90 90 90
0.023321 -2.619888 -0.229220 11 11 11
0.030913 -3.472859 0.675082 100 100 100
0.025102 -2.820018 -0.147797 11 11 11
0.030407 -3.416006 0.788678 100 100 100
0.026966 -3.029419 -0.052881 12 12 12
0.030023 -3.372879 0.903796 100 100 100
0.017419 -1.956888 -0.524367 24 24 24
0.029565 -3.321362 0.057977 12 12 12
0.018491 -2.077275 -0.479596 22 22 22
0.032178 -3.614896 0.189456 7 7 7
0.019345 -2.173236 -0.422451 19 19 19
0.032099 -3.606082 0.315504 100 100 100
0.020554 -2.309124 -0.365744 22 22 22
0.031770 -3.569055 0.438242 99 99 99
0.021963 -2.467372 -0.302967 12 12 12
0.031403 -3.527883 0.558784 96 96 96
0.023338 -2.621881 -0.229394 10 10 10
0.030878 -3.468933 0.674319 100 100 100
0.025067 -2.816024 -0.147587 10 10 10
0.030442 -3.419903 0.789578 100 100 100
0.026984 -3.031418 -0.052916 11 11 11
0.030023 -3.372879 0.903796 100 100 100
0.003757 -1.956962 -0.524367 23 23 23
0.006350 -3.307490 0.057733 11 11 11
0.003973 -2.069558 -0.477796 22 22 22
0.006910 -3.599054 0.188619 6 6 6
0.004221 -2.198841 -0.427412 21 21 21
0.006943 -3.616180 0.316375 100 100 100
0.004437 -2.311186 -0.366057 17 17 17
0.006852 -3.569189 0.438242 100 100 100
0.004749 -2.473420 -0.303698 13 13 13
0.006773 -3.528016 0.558784 92 92 92
0.005034 -2.621980 -0.229394 12 12 12
0.006645 -3.461211 0.672793 100 100 100
0.005391 -2.808141 -0.147169 11 11 11
0.006573 -3.423930 0.790478 100 100 100
0.005820 -3.031533 -0.052916 11 11 11
0.006483 -3.376870 0.904831 100 100 100
0.003750 -1.953098 -0.523332 24 24 24
0.006350 -3.307490 0.057733 12 12 12
0.003966 -2.065661 -0.476896 23 23 23
0.006875 -3.581079 0.187677 6 6 6
0.004195 -2.185098 -0.424741 22 22 22
0.006966 -3.628134 0.317421 100 100 100
0.004437 -2.311186 -0.366057 18 18 18
0.006845 -3.565219 0.437755 100 100 100
0.004726 -2.461510 -0.302236 13 13 13
0.006788 -3.535918 0.560035 92 92 92
0.005022 -2.616002 -0.228871 12 12 12
0.006660 -3.469064 0.674319 100 100 100
0.005376 -2.800152 -0.146750 10 10 10
0.006566 -3.420033 0.789578 100 100 100
0.005797 -3.019534 -0.052706 11 11 11
0.006498 -3.384598 0.906902 100 100 100
-0.009905 -1.956941 -0.524367 24 24 24
-0.016731 -3.305454 0.057698 11 11 11
-0.010465 -2.067587 -0.477346 24 24 24
-0.018105 -3.577045 0.187467 6 6 6
-0.011000 -2.173295 -0.422451 22 22 22
-0.018374 -3.630087 0.317596 100 100 100
-0.011718 -2.315112 -0.366682 17 17 17
-0.018105 -3.577091 0.439217 99 99 99
-0.012479 -2.465453 -0.302723 13 13 13
-0.017877 -3.531928 0.559410 96 96 96
-0.013261 -2.619958 -0.229220 11 11 11
-0.017638 -3.484732 0.677372 100 100 100
-0.014153 -2.796127 -0.146541 10 10 10
-0.017310 -3.419995 0.789578 100 100 100
-0.015243 -3.011503 -0.052567 12 12 12
-0.017151 -3.388424 0.907937 100 100 100
-0.009846 -1.945350 -0.521262 25 25 25
-0.016720 -3.303454 0.057663 11 11 11
-0.010475 -2.069536 -0.477796 24 24 24
-0.018075 -3.571053 0.187153 6 6 6
-0.010990 -2.171332 -0.422069 23 23 23
-0.018323 -3.620125 0.316724 100 100 100
-0.011708 -2.313136 -0.366370 16 16 16
-0.018146 -3.585031 0.440192 99 99 99
-0.012469 -2.463468 -0.302480 14 14 14
-0.017857 -3.527978 0.558784 92 92 92
-0.013120 -2.592065 -0.226779 12 12 12
-0.017658 -3.488658 0.678135 100 100 100
-0.014173 -2.800121 -0.146750 10 10 10
-0.017369 -3.431687 0.792278 100 100 100
-0.015192 -3.001504 -0.052392 12 12 12
-0.017151 -3.388424 0.907937 100 100 100
-0.022658 -1.937515 -0.519191 24 24 24
-0.038349 -3.279276 0.057244 11 11 11
-0.024246 -2.073318 -0.478696 22 22 22
-0.041665 -3.562867 0.186735 6 6 6
-0.025345 -2.167285 -0.421306 23 23 23
-0.042356 -3.621916 0.316898 100 100 100
-0.026749 -2.287330 -0.362302 14 14 14
-0.041922 -3.584832 0.440192 100 100 100
-0.028691 -2.453406 -0.301261 12 12 12
-0.041301 -3.531732 0.559410 92 92 92
-0.030357 -2.595906 -0.227128 11 11 11
-0.040749 -3.484538 0.677372 100 100 100
-0.032650 -2.791977 -0.146331 10 10 10
-0.040129 -3.431497 0.792278 100 100 100
-0.035052 -2.997338 -0.052322 10 10 10
-0.039623 -3.388236 0.907937 100 100 100
-0.022748 -1.945242 -0.521262 23 23 23
-0.038255 -3.271278 0.057104 11 11 11
-0.024018 -2.053832 -0.474197 23 23 23
-0.041642 -3.560869 0.186630 5 5 5
-0.025345 -2.167285 -0.421306 22 22 22
-0.042402 -3.625901 0.317247 100 100 100
-0.026679 -2.281404 -0.361364 15 15 15
-0.041875 -3.580862 0.439705 99 99 99
-0.028668 -2.451421 -0.301017 12 12 12
-0.041393 -3.539633 0.560661 88 88 88
-0.030357 -2.595906 -0.227128 11 11 11
-0.040703 -3.480612 0.676609 100 100 100
-0.032557 -2.783989 -0.145913 10 10 10
-0.040174 -3.435394 0.793177 100 100 100
-0.035145 -3.005337 -0.052462 12 12 12
-0.039713 -3.395963 0.910008 100 100 100
-0.036256 -1.941172 -0.520226 23 23 23
-0.061017 -3.266933 0.057034 10 10 10
-0.038174 -2.043872 -0.471947 24 24 24
-0.066276 -3.548510 0.186002 5 5 5
-0.040438 -2.165092 -0.420925 26 26 26
-0.067863 -3.633485 0.317944 100 100 100
-0.042827 -2.293012 -0.363241 16 16 16
-0.066910 -3.582467 0.439948 96 96 96
-0.045595 -2.441238 -0.299799 13 13 13
-0.066177 -3.543208 0.561287 86 86 86
-0.048479 -2.595631 -0.227128 11 11 11
-0.065148 -3.488095 0.678135 100 100 100
-0.051693 -2.767718 -0.145075 11 11 11
-0.064084 -3.431133 0.792278 100 100 100
-0.055789 -2.987024 -0.052148 9 9 9
-0.063565 -3.403329 0.912078 100 100 100
-0.036256 -1.941172 -0.520226 25 25 25
-0.060868 -3.258935 0.056895 11 11 11
-0.038283 -2.049717 -0.473297 22 22 22
-0.066015 -3.534532 0.185269 5 5 5
-0.040475 -2.167055 -0.421306 27 27 27
-0.068087 -3.645437 0.318990 100 100 100
-0.042790 -2.291037 -0.362928 18 18 18
-0.067022 -3.588421 0.440680 99 99 99
-0.045521 -2.437268 -0.299311 15 15 15
-0.066177 -3.543208 0.561287 92 92 92
-0.048479 -2.595631 -0.227128 12 12 12
-0.065294 -3.495946 0.679662 100 100 100
-0.051768 -2.771712 -0.145285 11 11 11
-0.064084 -3.431133 0.792278 100 100 100
-0.055677 -2.981026 -0.052043 11 11 11
-0.063709 -3.411055 0.914149 100 100 100
-0.050145 -1.940863 -0.520226 24 24 24
-0.084186 -3.258416 0.056895 11 11 11
-0.053251 -2.061079 -0.475996 24 24 24
-0.091357 -3.535966 0.185374 7 7 7
-0.055727 -2.156897 -0.419398 25 25 25
-0.093965 -3.636889 0.318293 100 100 100
-0.059183 -2.290673 -0.362928 17 17 17
-0.093006 -3.599756 0.442142 100 100 100
-0.062961 -2.436880 -0.299311 13 13 13
-0.091530 -3.542644 0.561287 88 88 88
-0.066640 -2.579284 -0.225733 11 11 11
-0.090512 -3.503240 0.681188 100 100 100
-0.071703 -2.775264 -0.145494 11 11 11
-0.088886 -3.440327 0.794527 100 100 100
-0.076697 -2.968557 -0.051834 10 10 10
-0.087817 -3.398925 0.911043 100 100 100
-0.049896 -1.931207 -0.517638 25 25 25
-0.083825 -3.244423 0.056651 11 11 11
-0.053050 -2.053287 -0.474197 23 23 23
-0.091564 -3.543952 0.185793 7 7 7
-0.055879 -2.162785 -0.420543 23 23 23
-0.093913 -3.634898 0.318118 61 61 61
-0.058775 -2.274875 -0.360425 17 17 17
-0.093057 -3.601741 0.442386 96 96 96
-0.063115 -2.442833 -0.300042 12 12 12
-0.091734 -3.550542 0.562538 88 88 88
-0.066537 -2.575300 -0.225385 11 11 11
-0.090309 -3.495390 0.679662 100 100 100
-0.071600 -2.771271 -0.145285 10 10 10
-0.089037 -3.446171 0.795877 100 100 100
-0.076697 -2.968557 -0.051834 11 11 11
-0.087817 -3.398925 0.911043 100 100 100
-0.063314 -1.928881 -0.517120 21 21 21
-0.106145 -3.233766 0.056476 11 11 11
-0.066936 -2.039233 -0.471048 24 24 24
-0.116237 -3.541230 0.185688 9 9 9
-0.070783 -2.156455 -0.419398 22 22 22
-0.119549 -3.642119 0.318816 31 31 31
-0.074655 -2.274409 -0.360425 17 17 17
-0.117678 -3.585131 0.440436 96 96 96
-0.079841 -2.432413 -0.298824 12 12 12
-0.116908 -3.561661 0.564416 88 88 88
-0.084514 -2.574773 -0.225385 11 11 11
-0.114709 -3.494674 0.679662 100 100 100
-0.090421 -2.754734 -0.144447 11 11 11
-0.113350 -3.453256 0.797676 100 100 100
-0.097617 -2.973945 -0.051938 9 9 9
-0.111797 -3.405952 0.913114 100 100 100
-0.063440 -1.932743 -0.518156 25 25 25
-0.106145 -3.233766 0.056476 12 12 12
-0.066744 -2.033390 -0.469698 23 23 23
-0.115910 -3.531249 0.185165 10 10 10
-0.070912 -2.160380 -0.420161 25 25 25
-0.119810 -3.650084 0.319513 13 13 13
-0.074850 -2.280332 -0.361364 20 20 20
-0.117874 -3.591083 0.441167 100 100 100
-0.079451 -2.420509 -0.297361 13 13 13
-0.117037 -3.565610 0.565041 88 88 88
-0.084514 -2.574773 -0.225385 12 12 12
-0.114838 -3.498598 0.680425 100 100 100
-0.090290 -2.750742 -0.144238 11 11 11
-0.113094 -3.445466 0.795877 100 100 100
-0.097485 -2.969948 -0.051869 10 10 10
-0.111924 -3.409814 0.914149 100 100 100
-0.076333 -1.934210 -0.518673 25 25 25
-0.127117 -3.221002 0.056267 10 10 10
-0.080382 -2.036797 -0.470598 24 24 24
-0.139721 -3.540382 0.185688 10 10 10
-0.084232 -2.134359 -0.415200 23 23 23
-0.144330 -3.657172 0.320210 12 12 12
-0.089894 -2.277812 -0.361051 19 19 19
-0.142001 -3.598157 0.442142 100 100 100
-0.095267 -2.413978 -0.296630 14 14 14
-0.140371 -3.556860 0.563790 88 88 88
-0.101275 -2.566192 -0.224688 12 12 12
-0.138348 -3.505607 0.681951 100 100 100
-0.108374 -2.746091 -0.144029 11 11 11
-0.136096 -3.448534 0.796777 100 100 100
-0.116313 -2.947256 -0.051485 11 11 11
-0.134688 -3.412857 0.915184 100 100 100
-0.075724 -1.918767 -0.514532 24 24 24
-0.126959 -3.217005 0.056197 9 9 9
-0.080920 -2.050427 -0.473747 26 26 26
-0.139563 -3.536390 0.185479 10 10 10
-0.084155 -2.132398 -0.414819 22 22 22
-0.143623 -3.639255 0.318641 12 12 12
-0.089894 -2.277812 -0.361051 18 18 18
-0.142471 -3.610058 0.443604 100 100 100
-0.095502 -2.419929 -0.297361 13 13 13
-0.140371 -3.556860 0.563790 92 92 92
-0.101039 -2.560220 -0.224165 12 12 12
-0.138658 -3.513454 0.683478 100 100 100
-0.108689 -2.754074 -0.144447 11 11 11
-0.136250 -3.452429 0.797676 100 100 100
-0.116155 -2.943260 -0.051415 10 10 10
-0.134536 -3.408996 0.914149 100 100 100
-0.089028 -1.916262 -0.514015 23 23 23
-0.148486 -3.196065 0.055848 10 10 10
-0.094961 -2.043972 -0.472397 25 25 25
-0.163600 -3.521364 0.184746 10 10 10
-0.099313 -2.137642 -0.415964 23 23 23
-0.169581 -3.650105 0.319687 12 12 12
-0.105427 -2.269235 -0.359799 19 19 19
-0.167854 -3.612941 0.444092 100 100 100
-0.112118 -2.413254 -0.296630 12 12 12
-0.165749 -3.567633 0.565667 86 86 86
-0.118633 -2.553481 -0.223642 13 13 13
-0.163183 -3.512400 0.683478 100 100 100
-0.127728 -2.749258 -0.144238 11 11 11
-0.160891 -3.463073 0.800376 100 100 100
-0.136700 -2.942378 -0.051415 11 11 11
-0.158421 -3.409904 0.914667 100 100 100
-0.089297 -1.922051 -0.515568 23 23 23
-0.147744 -3.180085 0.055568 9 9 9
-0.094238 -2.028399 -0.468798 24 24 24
-0.163692 -3.523359 0.184851 10 10 10
-0.099586 -2.143525 -0.417108 25 25 25
-0.169951 -3.658066 0.320385 11 11 11
-0.104877 -2.257396 -0.357922 17 17 17
-0.167486 -3.605009 0.443117 100 100 100
-0.112302 -2.417220 -0.297117 12 12 12
-0.166116 -3.575526 0.566919 83 83 83
-0.118817 -2.557462 -0.223990 14 14 14
-0.163001 -3.508478 0.682715 100 100 100
-0.126801 -2.729306 -0.143191 11 11 11
-0.160891 -3.463073 0.800376 100 100 100
-0.136608 -2.940380 -0.051380 10 10 10
-0.158869 -3.419553 0.917255 100 100 100
-0.102919 -1.925239 -0.516603 25 25 25
-0.169941 -3.178976 0.055568 9 9 9
-0.108188 -2.023800 -0.467898 24 24 24
-0.187646 -3.510164 0.184223 10 10 10
-0.114024 -2.132975 -0.415200 22 22 22
-0.196229 -3.670717 0.321605 12 12 12
-0.121161 -2.266472 -0.359486 20 20 20
-0.192649 -3.603752 0.443117 99 99 99
-0.128327 -2.400519 -0.295168 12 12 12
-0.191073 -3.574279 0.566919 83 83 83
-0.137094 -2.564528 -0.224688 12 12 12
-0.187910 -3.515096 0.684241 100 100 100
-0.145639 -2.724366 -0.142982 11 11 11
-0.184856 -3.457974 0.799476 100 100 100
-0.156705 -2.931367 -0.051240 10 10 10
-0.183151 -3.426077 0.919325 100 100 100
-0.102919 -1.925239 -0.516603 23 23 23
-0.170048 -3.180973 0.055603 9 9 9
-0.108292 -2.025746 -0.468348 24 24 24
-0.187220 -3.502186 0.183804 10 10 10
-0.113815 -2.129054 -0.414437 23 23 23
-0.196123 -3.668728 0.321430 11 11 11
-0.121372 -2.270417 -0.360112 21 21 21
-0.192861 -3.607717 0.443604 100 100 100
-0.127691 -2.388626 -0.293705 12 12 12
-0.191284 -3.578224 0.567544 81 81 81
-0.136563 -2.554580 -0.223816 12 12 12
-0.188329 -3.522938 0.685768 100 100 100
-0.145639 -2.724366 -0.142982 11 11 11
-0.184856 -3.457974 0.799476 100 100 100
-0.155851 -2.915393 -0.050961 10 10 10
-0.183357 -3.429935 0.920361 100 100 100
-0.115324 -1.912924 -0.513497 25 25 25
-0.192539 -3.193714 0.055848 12 12 12
-0.122078 -2.024962 -0.468348 24 24 24
-0.210813 -3.496844 0.183595 10 10 10
-0.127831 -2.120391 -0.412911 23 23 23
-0.220850 -3.663330 0.321082 11 11 11
-0.136466 -2.263623 -0.359174 18 18 18
-0.218130 -3.618209 0.445067 100 100 100
-0.144425 -2.395627 -0.294680 12 12 12
-0.215398 -3.572896 0.566919 81 81 81
-0.153108 -2.539670 -0.222596 13 13 13
-0.212777 -3.529413 0.687294 100 100 100
-0.164180 -2.723311 -0.142982 11 11 11
-0.209093 -3.468307 0.802175 100 100 100
-0.175090 -2.904284 -0.050787 11 11 11
-0.206467 -3.424751 0.919325 100 100 100
-0.115324 -1.912924 -0.513497 27 27 27
-0.190613 -3.161777 0.055289 10 10 10
-0.122078 -2.024962 -0.468348 24 24 24
-0.210693 -3.494850 0.183490 10 10 10
-0.128304 -2.128230 -0.414437 24 24 24
-0.221090 -3.667308 0.321430 11 11 11
-0.135515 -2.247848 -0.356671 19 19 19
-0.218369 -3.622172 0.445554 100 100 100
-0.145141 -2.407516 -0.296143 14 14 14
-0.215874 -3.580783 0.568170 81 81 81
-0.152869 -2.535693 -0.222247 13 13 13
-0.212777 -3.529413 0.687294 100 100 100
-0.164180 -2.723311 -0.142982 11 11 11
-0.209562 -3.476087 0.803975 100 100 100
-0.175691 -2.914264 -0.050961 9 9 9
-0.206700 -3.428607 0.920361 100 100 100
-0.128676 -1.912072 -0.513497 26 26 26
-0.212413 -3.156379 0.055219 10 10 10
-0.136081 -2.022116 -0.467898 25 25 25
-0.234684 -3.487316 0.183176 11 11 11
-0.142500 -2.117489 -0.412529 20 20 20
-0.247490 -3.677602 0.322476 12 12 12
-0.150674 -2.238964 -0.355419 17 17 17
-0.243651 -3.620560 0.445554 100 100 100
-0.161146 -2.394560 -0.294680 12 12 12
-0.241663 -3.591014 0.570047 81 81 81
-0.170835 -2.538539 -0.222596 14 14 14
-0.236884 -3.520006 0.685768 100 100 100
-0.182115 -2.706157 -0.142144 11 11 11
-0.234871 -3.490094 0.807574 100 100 100
-0.195764 -2.908976 -0.050891 11 11 11
-0.230890 -3.430936 0.921396 100 100 100
-0.128416 -1.908217 -0.512462 25 25 25
-0.212279 -3.154384 0.055185 10 10 10
-0.135427 -2.012394 -0.465649 24 24 24
-0.233075 -3.463403 0.181920 10 10 10
-0.142631 -2.119447 -0.412911 20 20 20
-0.248025 -3.685554 0.323173 13 13 13
-0.151338 -2.248818 -0.356983 21 21 21
-0.243918 -3.624521 0.446042 100 100 100
-0.160079 -2.378716 -0.292730 12 12 12
-0.241928 -3.594956 0.570673 83 83 83
-0.170835 -2.538539 -0.222596 14 14 14
-0.237675 -3.531759 0.688057 100 100 100
-0.181578 -2.698186 -0.141726 10 10 10
-0.233301 -3.466762 0.802175 100 100 100
-0.195898 -2.910971 -0.050926 11 11 11
-0.231409 -3.438646 0.923466 100 100 100
-0.142021 -1.911127 -0.513497 24 24 24
-0.234147 -3.150831 0.055150 10 10 10
-0.149328 -2.009456 -0.465199 23 23 23
-0.258136 -3.473642 0.182548 10 10 10
-0.157715 -2.122316 -0.413674 25 25 25
-0.274192 -3.689693 0.323696 13 13 13
-0.167033 -2.247707 -0.356983 21 21 21
-0.269510 -3.626689 0.446529 100 100 100
-0.176093 -2.369621 -0.291755 12 12 12
-0.266434 -3.585299 0.569421 83 83 83
-0.188553 -2.537285 -0.222596 12 12 12
-0.262907 -3.537845 0.689584 100 100 100
-0.200707 -2.700836 -0.141935 11 11 11
-0.258364 -3.476709 0.804875 100 100 100
-0.215475 -2.899562 -0.050752 9 9 9
-0.255982 -3.444652 0.925537 100 100 100
-0.141162 -1.899568 -0.510391 24 24 24
-0.234295 -3.152825 0.055185 10 10 10
-0.149617 -2.013343 -0.466099 23 23 23
-0.257544 -3.465675 0.182129 10 10 10
-0.156551 -2.106653 -0.410621 22 22 22
-0.274339 -3.691680 0.323871 12 12 12
-0.167033 -2.247707 -0.356983 21 21 21
-0.270392 -3.638567 0.447992 100 100 100
-0.176535 -2.375560 -0.292486 12 12 12
-0.266434 -3.585299 0.569421 78 78 78
-0.187372 -2.521390 -0.221201 13 13 13
-0.263489 -3.545677 0.691110 100 100 100
-0.201299 -2.708803 -0.142354 10 10 10
-0.258653 -3.480596 0.805775 100 100 100
-0.213845 -2.877626 -0.050368 10 10 10
-0.255696 -3.440799 0.924502 100 100 100
-0.154107 -1.894685 -0.509356 25 25 25
-0.254517 -3.129188 0.054801 10 10 10
-0.163511 -2.010307 -0.465649 21 21 21
-0.280437 -3.447867 0.181292 10 10 10
-0.171573 -2.109422 -0.411384 22 22 22
-0.299136 -3.677760 0.322825 13 13 13
-0.181921 -2.236642 -0.355419 19 19 19
-0.296109 -3.640547 0.448479 100 100 100
-0.192310 -2.364377 -0.291268 12 12 12
-0.292418 -3.595165 0.571299 86 86 86
-0.204646 -2.516048 -0.220853 13 13 13
-0.287918 -3.539837 0.690347 100 100 100
-0.219233 -2.695388 -0.141726 11 11 11
-0.283262 -3.482590 0.806674 100 100 100
-0.234739 -2.886028 -0.050542 9 9 9
-0.279710 -3.438930 0.924502 100 100 100
-0.154733 -1.902387 -0.511426 25 25 25
-0.254841 -3.133174 0.054870 10 10 10
-0.163037 -2.004480 -0.464299 24 24 24
-0.280275 -3.445876 0.181187 10 10 10
-0.171095 -2.103552 -0.410239 26 26 26
-0.299459 -3.681732 0.323173 13 13 13
-0.181280 -2.228766 -0.354168 19 19 19
-0.295466 -3.632633 0.447504 100 100 100
-0.192954 -2.372292 -0.292243 14 14 14
-0.293059 -3.603041 0.572550 81 81 81
-0.204646 -2.516048 -0.220853 12 12 12
-0.287600 -3.535924 0.689584 100 100 100
-0.217938 -2.679462 -0.140888 11 11 11
-0.284525 -3.498129 0.810274 100 100 100
-0.235226 -2.892008 -0.050647 10 10 10
-0.280024 -3.442781 0.925537 100 100 100
-0.167331 -1.893563 -0.509356 24 24 24
-0.275652 -3.119367 0.054661 10 10 10
-0.176341 -1.995529 -0.462499 24 24 24
-0.302919 -3.427919 0.180350 10 10 10
-0.186986 -2.115995 -0.412911 23 23 23
-0.326909 -3.699398 0.324917 13 13 13
-0.196140 -2.219576 -0.352916 18 18 18
-0.321168 -3.634437 0.447992 100 100 100
-0.208288 -2.357045 -0.290537 12 12 12
-0.318553 -3.604842 0.573176 86 86 86
-0.222557 -2.518528 -0.221201 14 14 14
-0.312969 -3.541652 0.691110 100 100 100
-0.236639 -2.677875 -0.140888 11 11 11
-0.308254 -3.488293 0.808474 100 100 100
-0.254002 -2.874359 -0.050368 11 11 11
-0.305412 -3.456137 0.929678 100 100 100
-0.168011 -1.901260 -0.511426 25 25 25
-0.275829 -3.121359 0.054696 10 10 10
-0.176684 -1.999411 -0.463399 23 23 23
-0.301512 -3.412003 0.179512 10 10 10
-0.185085 -2.094484 -0.408713 22 22 22
-0.326733 -3.697413 0.324742 11 11 11
-0.196835 -2.227446 -0.354168 18 18 18
-0.321168 -3.634437 0.447992 100 100 100
-0.207589 -2.349135 -0.289562 13 13 13
-0.318205 -3.600907 0.572550 83 83 83
-0.222207 -2.514558 -0.220853 13 13 13
-0.314352 -3.557297 0.694163 100 100 100
-0.236639 -2.677875 -0.140888 11 11 11
-0.308254 -3.488293 0.808474 100 100 100
-0.253826 -2.872368 -0.050333 9 9 9
-0.305752 -3.459986 0.930713 100 100 100
-0.179483 -1.884688 -0.507285 24 24 24
-0.297637 -3.125381 0.054801 11 11 11
-0.189920 -1.994282 -0.462499 24 24 24
-0.325676 -3.419813 0.180036 10 10 10
-0.199338 -2.093175 -0.408713 22 22 22
-0.351704 -3.693120 0.324568 12 12 12
-0.211992 -2.226055 -0.354168 18 18 18
-0.347405 -3.647976 0.449942 100 100 100
-0.224138 -2.353596 -0.290293 12 12 12
-0.342708 -3.598658 0.572550 81 81 81
-0.238184 -2.501087 -0.219807 13 13 13
-0.339302 -3.562893 0.695690 100 100 100
-0.254861 -2.676203 -0.140888 11 11 11
-0.332729 -3.493873 0.810274 100 100 100
-0.271855 -2.854648 -0.050054 10 10 10
-0.328564 -3.450132 0.928643 100 100 100
-0.179483 -1.884688 -0.507285 23 23 23
-0.295362 -3.101493 0.054382 10 10 10
-0.190474 -2.000102 -0.463849 24 24 24
-0.324540 -3.407884 0.179408 10 10 10
-0.199710 -2.097084 -0.409476 21 21 21
-0.350949 -3.685186 0.323871 11 11 11
-0.211243 -2.218189 -0.352916 19 19 19
-0.348534 -3.659833 0.451404 100 100 100
-0.224138 -2.353596 -0.290293 12 12 12
-0.343832 -3.610457 0.574427 75 75 75
-0.236673 -2.485220 -0.218412 13 13 13
-0.339302 -3.562893 0.695690 100 100 100
-0.254861 -2.676203 -0.140888 11 11 11
-0.334577 -3.513273 0.814773 100 100 100
-0.271475 -2.850666 -0.049984 10 10 10
-0.328930 -3.453979 0.929678 100 100 100
-0.193029 -1.887232 -0.508321 25 25 25
-0.315990 -3.089409 0.054207 11 11 11
-0.203045 -1.985153 -0.460700 24 24 24
-0.347714 -3.399574 0.179094 10 10 10
-0.214146 -2.093686 -0.409094 23 23 23
-0.376262 -3.678682 0.323522 11 11 11
-0.226121 -2.210765 -0.351978 21 21 21
-0.372864 -3.645461 0.449942 100 100 100
-0.240766 -2.353949 -0.290537 12 12 12
-0.370235 -3.619759 0.576305 78 78 78
-0.255234 -2.495399 -0.219458 13 13 13
-0.363368 -3.552625 0.694163 100 100 100
-0.271912 -2.658463 -0.140051 11 11 11
-0.359492 -3.514729 0.815673 100 100 100
-0.291777 -2.852680 -0.050054 10 10 10
-0.354215 -3.463129 0.932784 100 100 100
-0.193029 -1.887232 -0.508321 25 25 25
-0.316193 -3.091398 0.054242 11 11 11
-0.202847 -1.983214 -0.460250 25 25 25
-0.345885 -3.381692 0.178152 10 10 10
-0.214146 -2.093686 -0.409094 23 23 23
-0.375856 -3.674718 0.323173 9 9 9
-0.226322 -2.212730 -0.352290 19 19 19
-0.373672 -3.653361 0.450917 100 100 100
-0.239756 -2.344075 -0.289318 12 12 12
-0.370235 -3.619759 0.576305 81 81 81
-0.255234 -2.495399 -0.219458 13 13 13
-0.365366 -3.572156 0.697979 100 100 100
-0.270693 -2.646542 -0.139423 11 11 11
-0.358699 -3.506974 0.813873 100 100 100
-0.291573 -2.850691 -0.050019 11 11 11
-0.355001 -3.470816 0.934854 100 100 100
-0.205123 -1.882070 -0.507285 25 25 25
-0.336256 -3.085257 0.054172 11 11 11
-0.215995 -1.981825 -0.460250 24 24 24
-0.366142 -3.359469 0.177105 10 10 10
-0.226963 -2.082461 -0.407186 21 21 21
-0.400651 -3.676106 0.323522 9 9 9
-0.240992 -2.211180 -0.352290 19 19 19
-0.399184 -3.662642 0.452379 100 100 100
-0.254652 -2.336513 -0.288587 12 12 12
-0.394234 -3.617224 0.576305 83 83 83
-0.271778 -2.493652 -0.219458 13 13 13
-0.389475 -3.573557 0.698743 100 100 100
-0.289105 -2.652630 -0.139842 10 10 10
-0.382373 -3.508393 0.814773 100 100 100
-0.309390 -2.838755 -0.049844 12 12 12
-0.379268 -3.479908 0.937960 100 100 100
-0.204286 -1.874388 -0.505215 28 28 28
-0.336689 -3.089233 0.054242 11 11 11
-0.215573 -1.977951 -0.459350 23 23 23
-0.365492 -3.353512 0.176791 9 9 9
-0.225687 -2.070751 -0.404897 22 22 22
-0.397845 -3.650357 0.321256 8 8 8
-0.240992 -2.211180 -0.352290 19 19 19
-0.399184 -3.662642 0.452379 100 100 100
-0.254867 -2.338487 -0.288830 12 12 12
-0.394234 -3.617224 0.576305 86 86 86
-0.270051 -2.477806 -0.218064 12 12 12
-0.389900 -3.577461 0.699506 100 100 100
-0.289105 -2.652630 -0.139842 10 10 10
-0.383639 -3.520016 0.817472 100 100 100
-0.308523 -2.830803 -0.049704 12 12 12
-0.378850 -3.476067 0.936925 100 100 100
-0.216475 -1.865240 -0.503144 25 25 25
-0.356865 -3.074889 0.054033 10 10 10
-0.229825 -1.980269 -0.460250 23 23 23
-0.389356 -3.354847 0.177000 9 9 9
-0.241043 -2.076925 -0.406423 20 20 20
-0.422860 -3.643533 0.320907 8 8 8
-0.254146 -2.189822 -0.349162 19 19 19
-0.426575 -3.675541 0.454329 100 100 100
-0.271415 -2.338622 -0.289074 12 12 12
-0.420388 -3.622232 0.577556 88 88 88
-0.287572 -2.477840 -0.218238 15 15 15
-0.415319 -3.578552 0.700269 100 100 100
-0.308768 -2.660467 -0.140365 9 9 9
-0.409103 -3.524995 0.819272 100 100 100
-0.328509 -2.830567 -0.049739 11 11 11
-0.402217 -3.465662 0.934854 100 100 100
-0.217366 -1.872916 -0.505215 24 24 24
-0.355942 -3.066944 0.053893 10 10 10
-0.229376 -1.976398 -0.459350 23 23 23
-0.388665 -3.348895 0.176686 10 10 10
-0.240817 -2.074975 -0.406042 24 24 24
-0.422401 -3.639575 0.320559 8 8 8
-0.254146 -2.189822 -0.349162 19 19 19
-0.425659 -3.667654 0.453354 100 100 100
-0.271873 -2.342566 -0.289562 12 12 12
-0.421299 -3.630081 0.578808 88 88 88
-0.286883 -2.471903 -0.217715 13 13 13
-0.414413 -3.570751 0.698743 100 100 100
-0.306235 -2.638644 -0.139214 10 10 10
-0.410001 -3.532738 0.821071 100 100 100
-0.330123 -2.844471 -0.049984 11 11 11
-0.403108 -3.473338 0.936925 100 100 100
-0.231381 -1.879022 -0.507285 23 23 23
-0.377101 -3.062399 0.053858 10 10 10
-0.241739 -1.963143 -0.456651 29 29 29
-0.409838 -3.328259 0.175744 10 10 10
-0.256017 -2.079089 -0.407186 26 26 26
-0.447069 -3.630605 0.320036 8 8 8
-0.269427 -2.187994 -0.349162 18 18 18
-0.452224 -3.672474 0.454329 100 100 100
-0.286279 -2.324849 -0.287612 12 12 12
-0.448080 -3.638815 0.580685 88 88 88
-0.304133 -2.469839 -0.217715 13 13 13
-0.440291 -3.575565 0.700269 100 100 100
