-0.108805 -0.592249 -0.139020 12 12 12
-0.145798 -0.793611 0.042287 11 11 11
-0.105004 -0.571558 -0.112959 23 23 23
-0.111720 -0.608116 -0.097928 59 59 59
-0.108682 -0.591583 -0.073853 26 26 26
-0.127082 -0.691737 -0.061532 79 79 79
-0.152894 -0.832235 0.164477 3 3 3
-0.135693 -0.738608 -0.039357 74 74 74
-0.169017 -0.919999 0.215953 2 2 2
-0.140917 -0.767044 -0.013613 78 78 78
-0.163015 -0.887325 0.241737 2 2 2
-0.106258 -0.555969 -0.151668 100 100 100
-0.156163 -0.817084 0.014520 61 61 61
-0.113040 -0.591455 -0.139020 8 8 8
-0.160472 -0.839630 0.044800 9 9 9
-0.111302 -0.582362 -0.115249 22 22 22
-0.113102 -0.591779 -0.095425 53 53 53
-0.114031 -0.596639 -0.074584 12 12 12
-0.130907 -0.684939 -0.061009 70 70 70
-0.158845 -0.831119 0.164477 3 3 3
-0.140975 -0.737619 -0.039357 55 55 55
-0.372411 -1.948549 0.458000 1 1 1
-0.145652 -0.762088 -0.013543 79 79 79
-0.176613 -0.924086 0.252090 1 1 1
-0.108071 -0.565457 -0.154256 100 100 100
-0.154286 -0.807263 0.014346 85 85 85
-0.110114 -0.576143 -0.135421 12 12 12
-0.154473 -0.808242 0.043125 11 11 11
-0.110197 -0.576577 -0.114104 23 23 23
-0.112360 -0.587898 -0.094799 53 53 53
-0.112913 -0.590790 -0.073853 13 13 13
-0.132777 -0.694724 -0.061881 68 68 68
-0.137601 -0.719963 -0.038415 39 39 39
-0.175596 -0.918766 0.215953 2 2 2
-0.145652 -0.762088 -0.013543 79 79 79
-0.169360 -0.886136 0.241737 2 2 2
-0.113320 -0.572308 -0.156327 100 100 100
-0.161967 -0.817992 0.014555 87 87 87
-0.114689 -0.579223 -0.136320 12 12 12
-0.157502 -0.795444 0.042497 11 11 11
-0.116687 -0.589315 -0.116775 30 30 30
-0.117024 -0.591016 -0.095425 61 61 61
-0.109503 -0.553029 -0.069222 14 14 14
-0.137382 -0.693828 -0.061881 58 58 58
-0.141209 -0.713157 -0.038101 20 20 20
-0.176387 -0.890818 0.209654 2 2 2
-0.151480 -0.765028 -0.013613 78 78 78
-0.180487 -0.911524 0.248984 1 1 1
-0.114446 -0.577993 -0.157880 100 100 100
-0.163520 -0.825838 0.014695 91 91 91
-0.116582 -0.588781 -0.138570 12 12 12
-0.164485 -0.830710 0.044381 10 10 10
-0.115925 -0.585463 -0.116012 30 30 30
-0.117792 -0.594891 -0.096051 52 52 52
-0.116443 -0.588081 -0.073609 13 13 13
-0.163450 -0.825484 0.133282 6 6 6
-0.136608 -0.689919 -0.061532 29 29 29
-0.140821 -0.711197 -0.037996 20 20 20
-0.170331 -0.860232 0.202456 3 3 3
-0.149538 -0.755220 -0.013438 82 82 82
-0.184239 -0.930474 0.254160 1 1 1
-0.117024 -0.569590 -0.155809 100 100 100
-0.169426 -0.824647 0.014695 97 97 97
-0.121576 -0.591749 -0.139470 16 16 16
-0.173239 -0.843206 0.045114 9 9 9
-0.118926 -0.578849 -0.114867 31 31 31
-0.124431 -0.605643 -0.097928 51 51 51
-0.114256 -0.556121 -0.069709 14 14 14
-0.138333 -0.673311 -0.060137 10 10 10
-0.143495 -0.698433 -0.037368 20 20 20
-0.178835 -0.870444 0.205155 3 3 3
-0.156145 -0.760007 -0.013543 79 79 79
-0.184672 -0.898855 0.245878 2 2 2
-0.116246 -0.565806 -0.154774 100 100 100
-0.165401 -0.805059 0.014346 78 78 78
-0.123145 -0.599385 -0.141269 16 16 16
-0.170827 -0.831468 0.044486 10 10 10
-0.121297 -0.590388 -0.117157 37 37 37
-0.122443 -0.595968 -0.096364 60 60 60
-0.127040 -0.618344 -0.077509 12 12 12
-0.169353 -0.824293 0.133282 6 6 6
-0.133923 -0.651843 -0.058220 11 11 11
-0.136662 -0.665174 -0.035588 23 23 23
-0.184325 -0.897169 0.211454 2 2 2
-0.158158 -0.769801 -0.013718 77 77 77
-0.183894 -0.895070 0.244843 2 2 2
-0.121399 -0.570649 -0.156327 100 100 100
-0.171018 -0.803885 0.014346 71 71 71
-0.124894 -0.587074 -0.138570 20 20 20
-0.179121 -0.841976 0.045114 9 9 9
-0.126641 -0.595287 -0.118302 51 51 51
-0.157126 -0.738587 0.066064 10 10 10
-0.124545 -0.585438 -0.094799 53 53 53
-0.117310 -0.551426 -0.069222 14 14 14
-0.179214 -0.842412 0.136411 5 5 5
-0.125618 -0.590480 -0.052816 12 12 12
-0.176072 -0.827641 0.164477 3 3 3
-0.140471 -0.660297 -0.035379 23 23 23
-0.194639 -0.914921 0.215953 2 2 2
-0.163112 -0.766722 -0.013683 77 77 77
-0.190139 -0.893765 0.244843 2 2 2
-0.123811 -0.581986 -0.159433 100 100 100
-0.172266 -0.809753 0.014451 70 70 70
-0.126110 -0.592792 -0.139920 24 24 24
-0.176212 -0.828302 0.044381 20 20 20
-0.127866 -0.601048 -0.119446 65 65 65
-0.126190 -0.593166 -0.096051 52 52 52
-0.112353 -0.528126 -0.066297 14 14 14
-0.184969 -0.869462 0.140791 4 4 4
-0.121472 -0.570992 -0.051073 13 13 13
-0.187340 -0.880611 0.207855 2 2 2
-0.163528 -0.768678 -0.013718 69 69 69
-0.191747 -0.901323 0.246913 1 1 1
-0.131192 -0.596201 -0.163574 100 100 100
-0.182212 -0.828060 0.014800 76 76 76
-0.129827 -0.589994 -0.139470 28 28 28
-0.183707 -0.834854 0.044800 19 19 19
-0.131215 -0.596306 -0.118683 66 66 66
-0.183688 -0.834764 0.074780 7 7 7
-0.132026 -0.599988 -0.097302 51 51 51
-0.125423 -0.569981 -0.071659 13 13 13
-0.169808 -0.771689 0.125148 7 7 7
-0.125456 -0.570130 -0.051073 13 13 13
-0.181845 -0.826392 0.164477 3 3 3
-0.190971 -0.867863 0.205155 3 3 3
-0.165882 -0.753847 -0.013473 63 63 63
-0.197204 -0.896189 0.245878 2 2 2
-0.127456 -0.579221 -0.158915 100 100 100
-0.180923 -0.822201 0.014695 58 58 58
-0.133177 -0.605220 -0.143069 38 38 38
-0.184136 -0.836804 0.044904 29 29 29
-0.129106 -0.586719 -0.116775 67 67 67
-0.177693 -0.807522 0.072339 8 8 8
-0.132875 -0.603846 -0.097928 51 51 51
-0.125423 -0.569981 -0.071659 13 13 13
-0.191034 -0.868150 0.140791 4 4 4
-0.122887 -0.558455 -0.050027 13 13 13
-0.181845 -0.826392 0.164477 3 3 3
-0.193484 -0.879282 0.207855 2 2 2
-0.165882 -0.753847 -0.013473 45 45 45
-0.198034 -0.899962 0.246913 1 1 1
-0.133638 -0.587736 -0.161503 100 100 100
-0.186659 -0.820918 0.014695 78 78 78
-0.136967 -0.602375 -0.142619 38 38 38
-0.194845 -0.856921 0.046056 44 44 44
-0.135811 -0.597290 -0.119065 66 66 66
-0.181559 -0.798491 0.071642 8 8 8
-0.134021 -0.589421 -0.095738 53 53 53
-0.124998 -0.549734 -0.069222 14 14 14
-0.175191 -0.770484 0.125148 7 7 7
-0.138268 -0.608096 -0.054559 12 12 12
-0.209375 -0.920822 0.183558 1 1 1
-0.200481 -0.881710 0.208755 2 2 2
-0.172914 -0.760470 -0.013613 26 26 26
-0.200029 -0.879720 0.241737 2 2 2
-0.132782 -0.583968 -0.160468 100 100 100
-0.184442 -0.811169 0.014520 61 61 61
-0.135239 -0.594774 -0.140819 56 56 56
-0.197059 -0.866659 0.046579 67 67 67
-0.136681 -0.601119 -0.119828 65 65 65
-0.186860 -0.821804 0.073734 7 7 7
-0.134021 -0.589421 -0.095738 45 45 45
-0.129399 -0.569091 -0.071659 13 13 13
-0.132967 -0.584783 -0.052468 13 13 13
-0.187610 -0.825102 0.164477 3 3 3
-0.196161 -0.862708 0.204256 3 3 3
-0.170254 -0.748771 -0.013403 18 18 18
-0.204312 -0.898558 0.246913 1 1 1
-0.138518 -0.590574 -0.162538 100 100 100
-0.191786 -0.817682 0.014660 72 72 72
-0.139284 -0.593840 -0.140819 80 80 80
-0.199305 -0.849742 0.045742 82 82 82
-0.145701 -0.621199 -0.124026 68 68 68
-0.197909 -0.843791 0.075825 6 6 6
-0.139834 -0.596187 -0.096989 44 44 44
-0.128737 -0.548871 -0.069222 14 14 14
-0.139674 -0.595503 -0.053514 12 12 12
-0.189569 -0.808229 0.191658 4 4 4
-0.178087 -0.759276 -0.013613 8 8 8
-0.209542 -0.893385 0.245878 2 2 2
-0.138518 -0.590574 -0.162538 100 100 100
-0.194982 -0.831310 0.014904 61 61 61
-0.141509 -0.603326 -0.143069 81 81 81
-0.199305 -0.849742 0.045742 100 100 100
-0.143459 -0.611643 -0.122118 77 77 77
-0.198819 -0.847670 0.076174 6 6 6
-0.142090 -0.605803 -0.098554 43 43 43
-0.133269 -0.568197 -0.071659 13 13 13
-0.125115 -0.533431 -0.047936 14 14 14
-0.182449 -0.777873 0.184460 5 5 5
-0.158908 -0.677508 -0.012147 11 11 11
-0.198072 -0.844484 0.232420 3 3 3
-0.141275 -0.583960 -0.160985 100 100 100
-0.201251 -0.831872 0.014939 67 67 67
-0.145717 -0.602324 -0.143069 81 81 81
-0.206172 -0.852212 0.045951 97 97 97
-0.147264 -0.608718 -0.121736 100 100 100
-0.206138 -0.852071 0.076697 6 6 6
-0.144458 -0.597117 -0.097302 36 36 36
-0.133499 -0.551818 -0.069709 14 14 14
-0.125088 -0.517052 -0.046541 15 15 15
-0.198968 -0.822437 0.164477 3 3 3
-0.183751 -0.759534 0.180411 5 5 5
-0.175860 -0.726916 -0.013054 9 9 9
-0.203054 -0.839325 0.231384 3 3 3
-0.142183 -0.587715 -0.162021 100 100 100
-0.200311 -0.827985 0.014869 68 68 68
-0.145717 -0.602324 -0.143069 73 73 73
-0.207111 -0.856095 0.046160 87 87 87
-0.147264 -0.608718 -0.121736 100 100 100
-0.204264 -0.844325 0.076000 6 6 6
-0.143993 -0.595197 -0.096989 36 36 36
-0.137233 -0.567253 -0.071659 13 13 13
-0.137269 -0.567402 -0.051073 13 13 13
-0.198968 -0.822437 0.164477 3 3 3
-0.187875 -0.776581 0.184460 10 10 10
-0.175860 -0.726916 -0.013054 9 9 9
-0.193060 -0.798016 0.219996 4 4 4
-0.148049 -0.594232 -0.164091 100 100 100
-0.204492 -0.820781 0.014765 63 63 63
-0.145574 -0.584299 -0.139020 72 72 72
-0.212934 -0.854665 0.046160 78 78 78
-0.153777 -0.617227 -0.123644 31 31 31
-0.215786 -0.866114 0.078092 5 5 5
-0.148519 -0.596119 -0.097302 36 36 36
-0.141091 -0.566306 -0.071659 13 13 13
-0.152688 -0.612853 -0.055257 12 12 12
-0.214054 -0.859164 0.172110 3 3 3
-0.192685 -0.773393 0.184010 10 10 10
-0.197554 -0.792934 0.218961 4 4 4
-0.148516 -0.596107 -0.164609 100 100 100
-0.202558 -0.813019 0.014625 59 59 59
-0.146987 -0.589972 -0.140369 84 84 84
-0.211485 -0.848851 0.045846 81 81 81
-0.154252 -0.619132 -0.124026 38 38 38
-0.222529 -0.893180 0.080532 9 9 9
-0.155682 -0.624871 -0.101995 34 34 34
-0.238991 -0.959253 0.121382 1 1 1
-0.141091 -0.566306 -0.071659 13 13 13
-0.137275 -0.550988 -0.049679 13 13 13
-0.220699 -0.885834 0.177452 2 2 2
-0.189858 -0.762047 0.181311 16 16 16
-0.197554 -0.792934 0.218961 8 8 8
-0.153258 -0.596900 -0.165127 100 100 100
-0.212349 -0.827044 0.014904 49 49 49
-0.151690 -0.590793 -0.140819 92 92 92
-0.220534 -0.858923 0.046474 76 76 76
-0.155749 -0.606602 -0.121736 36 36 36
-0.227924 -0.887706 0.080183 15 15 15
-0.155728 -0.606521 -0.099179 29 29 29
-0.238937 -0.930600 0.117970 1 1 1
-0.145140 -0.565282 -0.071659 13 13 13
-0.136259 -0.530694 -0.047936 14 14 14
-0.239727 -0.933673 0.187374 1 1 1
-0.196276 -0.764444 0.182210 16 16 16
-0.202262 -0.787758 0.217926 9 9 9
-0.149895 -0.583802 -0.161503 100 100 100
-0.208868 -0.813486 0.014660 33 33 33
-0.153144 -0.596455 -0.142169 84 84 84
-0.221031 -0.860858 0.046579 67 67 67
-0.155261 -0.604701 -0.121355 31 31 31
-0.227429 -0.885776 0.080009 20 20 20
-0.156711 -0.610348 -0.099805 21 21 21
-0.231039 -0.899836 0.114070 2 2 2
-0.150076 -0.584509 -0.074097 13 13 13
-0.129322 -0.503676 -0.045495 15 15 15
-0.234844 -0.914658 0.183558 1 1 1
-0.196276 -0.764444 0.182210 16 16 16
-0.193614 -0.754077 0.208608 16 16 16
-0.153865 -0.582768 -0.161503 100 100 100
-0.158692 -0.601052 -0.143519 89 89 89
-0.228415 -0.865126 0.046893 73 73 73
-0.160376 -0.607426 -0.122118 26 26 26
-0.235487 -0.891913 0.080706 23 23 23
-0.161366 -0.611177 -0.100118 21 21 21
-0.250334 -0.948145 0.120407 1 1 1
-0.144930 -0.548926 -0.069709 14 14 14
-0.149023 -0.564429 -0.051073 13 13 13
-0.230039 -0.871277 0.175163 2 2 2
-0.201475 -0.763091 0.182210 16 16 16
-0.198742 -0.752742 0.208608 16 16 16
-0.154358 -0.584636 -0.162021 100 100 100
-0.154215 -0.584094 -0.139470 80 80 80
-0.229434 -0.868989 0.047102 72 72 72
-0.164385 -0.622612 -0.125171 100 100 100
-0.238030 -0.901545 0.081578 35 35 35
-0.163887 -0.620727 -0.101682 20 20 20
-0.253374 -0.959661 0.121869 1 1 1
-0.144930 -0.548926 -0.069709 14 14 14
-0.149023 -0.564429 -0.051073 13 13 13
-0.241065 -0.913038 0.183558 1 1 1
-0.206449 -0.781932 0.186709 20 20 20
-0.204660 -0.775156 0.214820 14 14 14
-0.160967 -0.592866 -0.164609 100 100 100
-0.211681 -0.779652 0.014102 7 7 7
-0.158289 -0.583003 -0.139470 84 84 84
-0.234972 -0.865438 0.046998 73 73 73
-0.171300 -0.630923 -0.127079 100 100 100
-0.246928 -0.909475 0.082449 40 40 40
-0.168217 -0.619567 -0.101682 13 13 13
-0.251746 -0.927217 0.117970 1 1 1
-0.158121 -0.582384 -0.074097 13 13 13
-0.152960 -0.563374 -0.051073 13 13 13
-0.247433 -0.911333 0.183558 1 1 1
-0.204755 -0.754143 0.180411 33 33 33
-0.206017 -0.758793 0.210679 20 20 20
-0.162992 -0.600323 -0.166679 100 100 100
-0.158289 -0.583003 -0.139470 84 84 84
-0.229739 -0.846163 0.045951 79 79 79
-0.168213 -0.619555 -0.124789 100 100 100
-0.250583 -0.922934 0.083670 49 49 49
-0.175980 -0.648163 -0.106375 19 19 19
-0.255907 -0.942543 0.119919 1 1 1
-0.148759 -0.547901 -0.069709 14 14 14
-0.242289 -0.892386 0.179742 2 2 2
-0.202712 -0.746620 0.178611 70 70 70
-0.206017 -0.758793 0.210679 30 30 30
-0.161987 -0.580563 -0.161503 100 100 100
-0.164450 -0.589392 -0.141269 84 84 84
-0.241008 -0.863777 0.046998 73 73 73
-0.171479 -0.614583 -0.124026 100 100 100
-0.252736 -0.905810 0.082275 66 66 66
-0.182625 -0.654529 -0.107627 18 18 18
-0.267815 -0.959854 0.122357 1 1 1
-0.152580 -0.546849 -0.069709 14 14 14
-0.248513 -0.890673 0.179742 2 2 2
-0.212633 -0.762080 0.182660 69 69 69
-0.201964 -0.723843 0.201361 48 48 48
-0.162506 -0.582423 -0.162021 100 100 100
-0.164974 -0.591269 -0.141719 68 68 68
-0.243692 -0.873396 0.047521 68 68 68
-0.172534 -0.618365 -0.124789 100 100 100
-0.254343 -0.911567 0.082798 65 65 65
-0.174131 -0.624086 -0.102621 20 20 20
-0.258213 -0.925437 0.117970 1 1 1
-0.152580 -0.546849 -0.069709 14 14 14
-0.211062 -0.756449 0.181311 71 71 71
-0.199888 -0.716399 0.199291 100 100 100
-0.168165 -0.586846 -0.163574 100 100 100
-0.165340 -0.576990 -0.138570 82 82 82
-0.249233 -0.869753 0.047416 62 62 62
-0.177929 -0.620920 -0.125552 100 100 100
-0.256858 -0.896362 0.081578 56 56 56
-0.185013 -0.645643 -0.106375 19 19 19
-0.267948 -0.935061 0.119432 1 1 1
-0.148738 -0.519055 -0.066297 14 14 14
-0.233092 -0.813424 0.164477 3 3 3
-0.215801 -0.753084 0.180861 67 67 67
-0.208077 -0.726129 0.202396 100 100 100
-0.169229 -0.590560 -0.164609 100 100 100
-0.164266 -0.573243 -0.137670 82 82 82
-0.242081 -0.844793 0.046056 71 71 71
-0.179010 -0.624695 -0.126316 100 100 100
-0.262896 -0.917430 0.083495 47 47 47
-0.182292 -0.636148 -0.104811 26 26 26
-0.272323 -0.950328 0.121382 1 1 1
-0.160769 -0.561037 -0.071659 13 13 13
-0.217948 -0.760577 0.182660 75 75 75
-0.211270 -0.737272 0.205502 100 100 100
-0.172597 -0.587571 -0.164091 100 100 100
-0.170811 -0.581490 -0.139920 68 68 68
-0.252745 -0.860416 0.046998 65 65 65
-0.182043 -0.619727 -0.125552 100 100 100
-0.268413 -0.913755 0.083321 47 47 47
-0.188734 -0.642506 -0.106063 26 26 26
-0.281417 -0.958024 0.122601 1 1 1
-0.164486 -0.559958 -0.071659 13 13 13
-0.220242 -0.749766 0.180411 73 73 73
-0.216700 -0.737708 0.206020 93 93 93
-0.168786 -0.574597 -0.160468 100 100 100
-0.171360 -0.583359 -0.140369 60 60 60
-0.251619 -0.856583 0.046788 66 66 66
-0.182043 -0.619727 -0.125552 100 100 100
-0.267290 -0.909932 0.082972 50 50 50
-0.191518 -0.651983 -0.107627 18 18 18
-0.280857 -0.956119 0.122357 2 2 2
-0.278369 -0.947649 0.156434 1 1 1
-0.225734 -0.768464 0.184910 52 52 52
-0.214522 -0.730294 0.203949 100 100 100
-0.173908 -0.577104 -0.161503 100 100 100
-0.210018 -0.696933 0.012705 10 10 10
-0.178240 -0.591478 -0.142619 62 62 62
-0.261050 -0.866280 0.047416 62 62 62
-0.188631 -0.625960 -0.127079 99 99 99
-0.272486 -0.904228 0.082624 52 52 52
-0.190365 -0.631716 -0.104498 19 19 19
-0.289244 -0.959837 0.123088 3 3 3
-0.168391 -0.558796 -0.071659 13 13 13
-0.284978 -0.945683 0.156434 1 1 1
-0.231656 -0.768735 0.185360 46 46 46
-0.220172 -0.730628 0.204467 100 100 100
-0.176138 -0.584502 -0.163574 100 100 100
-0.174304 -0.578417 -0.139470 76 76 76
-0.259898 -0.862455 0.047207 55 55 55
-0.188631 -0.625960 -0.127079 79 79 79
-0.273636 -0.908044 0.082972 50 50 50
-0.191505 -0.635499 -0.105124 19 19 19
-0.286953 -0.952235 0.122113 4 4 4
-0.168391 -0.558796 -0.071659 13 13 13
-0.284978 -0.945683 0.156434 1 1 1
-0.235592 -0.781796 0.188509 39 39 39
-0.224631 -0.745426 0.208608 100 100 100
-0.179175 -0.579536 -0.162538 100 100 100
-0.181317 -0.586464 -0.141719 68 68 68
-0.263113 -0.851032 0.046684 58 58 58
-0.194845 -0.630221 -0.128224 84 84 84
-0.283069 -0.915580 0.083844 42 42 42
-0.197798 -0.639774 -0.106063 19 19 19
-0.294346 -0.952053 0.122357 6 6 6
-0.167695 -0.542405 -0.069709 14 14 14
-0.312743 -1.011560 0.167698 1 1 1
-0.239453 -0.774505 0.187159 25 25 25
-0.231101 -0.747490 0.209643 100 100 100
-0.183169 -0.592455 -0.166162 100 100 100
-0.181892 -0.588326 -0.142169 76 76 76
-0.262523 -0.849124 0.046579 58 58 58
-0.191945 -0.620842 -0.126316 92 92 92
-0.281304 -0.909869 0.083321 43 43 43
-0.198965 -0.643548 -0.106688 19 19 19
-0.296691 -0.959639 0.123332 9 9 9
-0.180595 -0.584128 -0.075072 12 12 12
-0.303408 -0.981364 0.162692 1 1 1
-0.240604 -0.778228 0.188059 14 14 14
-0.232813 -0.753027 0.211196 100 100 100
-0.181466 -0.572746 -0.160985 100 100 100
-0.188349 -0.594472 -0.143969 73 73 73
-0.271461 -0.856791 0.047102 56 56 56
-0.195089 -0.615744 -0.125552 100 100 100
-0.285843 -0.902185 0.082798 46 46 46
-0.205840 -0.649676 -0.107940 18 18 18
-0.307580 -0.970791 0.125038 12 12 12
-0.203854 -0.643409 -0.082871 10 10 10
-0.306671 -0.967923 0.160815 1 1 1
-0.252506 -0.796965 0.193008 4 4 4
-0.237481 -0.749542 0.210679 100 100 100
-0.181466 -0.572746 -0.160985 100 100 100
-0.188349 -0.594472 -0.143969 77 77 77
-0.275080 -0.868215 0.047730 52 52 52
-0.196275 -0.619487 -0.126316 99 99 99
-0.284640 -0.898386 0.082449 48 48 48
-0.204050 -0.644027 -0.107001 19 19 19
-0.306981 -0.968899 0.124794 16 16 16
-0.203255 -0.641517 -0.082627 11 11 11
-0.313831 -0.990521 0.164569 1 1 1
-0.267809 -0.845266 0.204705 3 3 3
-0.239231 -0.755067 0.212232 100 100 100
-0.187744 -0.578848 -0.163056 100 100 100
-0.189385 -0.583908 -0.141719 72 72 72
-0.281600 -0.868222 0.047835 51 51 51
-0.202910 -0.625607 -0.127842 97 97 97
-0.295666 -0.911590 0.083844 38 38 38
-0.204772 -0.631349 -0.105124 26 26 26
-0.311731 -0.961122 0.124063 25 25 25
-0.213741 -0.659001 -0.085065 10 10 10
-0.325442 -1.003394 0.167072 1 1 1
-0.277164 -0.854545 0.207405 3 3 3
-0.247345 -0.762609 0.214820 100 100 100
-0.190128 -0.586198 -0.165127 100 100 100
-0.188183 -0.580201 -0.140819 88 88 88
-0.275438 -0.849224 0.046788 57 57 57
-0.204727 -0.631209 -0.128987 100 100 100
-0.294436 -0.907799 0.083495 39 39 39
-0.207819 -0.640744 -0.106688 25 25 25
-0.308669 -0.951681 0.122844 21 21 21
-0.211904 -0.653337 -0.084334 10 10 10
-0.323004 -0.995878 0.165821 1 1 1
-0.287986 -0.887911 0.215503 2 2 2
-0.169043 -0.521188 -0.009564 16 16 16
-0.249133 -0.768122 0.216373 100 100 100
-0.193709 -0.582990 -0.164609 100 100 100
-0.195402 -0.588086 -0.143069 77 77 77
-0.278359 -0.837754 0.046265 34 34 34
-0.203667 -0.612960 -0.125552 100 100 100
-0.302181 -0.909451 0.083844 38 38 38
-0.215514 -0.648613 -0.108253 43 43 43
-0.317975 -0.956983 0.123819 20 20 20
-0.219077 -0.659339 -0.085309 20 20 20
-0.325139 -0.978544 0.163318 1 1 1
-0.184073 -0.553990 -0.051073 13 13 13
-0.290645 -0.874732 0.212804 2 2 2
-0.257669 -0.775486 0.218961 91 91 91
-0.191881 -0.577490 -0.163056 100 100 100
-0.196631 -0.591785 -0.143969 58 58 58
-0.277729 -0.835859 0.046160 35 35 35
-0.206762 -0.622276 -0.127460 100 100 100
-0.301553 -0.907560 0.083670 42 42 42
-0.214268 -0.644864 -0.107627 56 56 56
-0.320479 -0.964518 0.124794 20 20 20
-0.219703 -0.661223 -0.085552 30 30 30
-0.330122 -0.993541 0.165821 1 1 1
-0.587478 -1.768083 0.362155 1 1 1
-0.294332 -0.885828 0.215503 2 2 2
-0.255842 -0.769986 0.217408 85 85 85
-0.193843 -0.570717 -0.161503 100 100 100
-0.201178 -0.592313 -0.144419 38 38 38
-0.278770 -0.820760 0.045428 28 28 28
-0.208991 -0.615314 -0.126316 99 99 99
-0.306925 -0.903653 0.083495 43 43 43
-0.217269 -0.639688 -0.107001 63 63 63
-0.329422 -0.969890 0.125769 21 21 21
-0.230468 -0.678547 -0.087990 29 29 29
-0.359574 -1.058665 0.177084 4 4 4
-0.196714 -0.579168 -0.053514 12 12 12
-0.593508 -1.747417 0.358721 1 1 1
-0.308975 -0.909689 0.221802 1 1 1
-0.260943 -0.768272 0.217408 76 76 76
-0.195086 -0.574375 -0.162538 100 100 100
-0.209654 -0.617268 0.011379 12 12 12
-0.196165 -0.577551 -0.140819 36 36 36
-0.270420 -0.796175 0.044067 31 31 31
-0.211516 -0.622750 -0.127842 97 97 97
-0.311410 -0.916859 0.084715 37 37 37
-0.215363 -0.634077 -0.106063 71 71 71
-0.326869 -0.962372 0.124794 20 20 20
-0.231745 -0.682307 -0.088477 38 38 38
-0.359574 -1.058665 0.177084 5 5 5
-0.194151 -0.571622 -0.052816 12 12 12
-0.589089 -1.734405 0.356050 3 3 3
-0.269641 -0.793882 0.224655 69 69 69
-0.201627 -0.580299 -0.164609 100 100 100
-0.205309 -0.590894 -0.144419 50 50 50
-0.266139 -0.765969 0.042497 34 34 34
-0.217147 -0.624967 -0.128605 97 97 97
-0.319111 -0.918427 0.085064 36 36 36
-0.223675 -0.643753 -0.107940 75 75 75
-0.330973 -0.952566 0.123819 20 20 20
-0.231290 -0.665671 -0.086527 50 50 50
-0.221678 -0.638006 -0.059092 10 10 10
-0.609559 -1.754358 0.361011 6 6 6
-0.592901 -1.706413 0.417059 1 1 1
-0.277713 -0.799279 0.226725 63 63 63
-0.203529 -0.585773 -0.166162 100 100 100
-0.233648 -0.672457 0.012426 10 10 10
-0.204669 -0.589053 -0.143969 58 58 58
-0.261550 -0.752762 0.041764 36 36 36
-0.214570 -0.617549 -0.127079 99 99 99
-0.315188 -0.907135 0.084018 37 37 37
-0.225620 -0.649351 -0.108878 73 73 73
-0.337488 -0.971317 0.126257 20 20 20
-0.229987 -0.661921 -0.086040 70 70 70
-0.350100 -1.007614 0.168949 5 5 5
-0.221678 -0.638006 -0.059092 10 10 10
-0.608271 -1.750649 0.360247 14 14 14
-0.594180 -1.710095 0.417959 3 3 3
-0.280249 -0.806578 0.228796 45 45 45
-0.201892 -0.567919 -0.161503 10 10 10
-0.233095 -0.655694 0.012147 11 11 11
-0.210184 -0.591246 -0.144868 69 69 69
-0.266930 -0.750871 0.041764 36 36 36
-0.220956 -0.621547 -0.128224 84 84 84
-0.319669 -0.899224 0.083495 39 39 39
-0.234892 -0.660749 -0.111068 64 64 64
-0.344430 -0.968877 0.126257 20 20 20
-0.236713 -0.665869 -0.086771 90 90 90
-0.225570 -0.634526 -0.058917 10 10 10
-0.624070 -1.755501 0.362155 63 63 63
-0.241508 -0.679360 -0.037787 20 20 20
-0.611624 -1.720489 0.421558 4 4 4
-0.285367 -0.802732 0.228278 49 49 49
-0.205127 -0.577021 -0.164091 10 10 10
-0.210837 -0.593082 -0.145318 69 69 69
-0.269606 -0.758399 0.042183 35 35 35
-0.217011 -0.610448 -0.125934 74 74 74
-0.320336 -0.901102 0.083670 38 38 38
-0.232907 -0.655165 -0.110130 54 54 54
-0.343100 -0.965136 0.125769 20 20 20
-0.238042 -0.669610 -0.087258 98 98 98
-0.627262 -1.764479 0.296600 85 85 85
-0.231576 -0.651421 -0.060486 10 10 10
-0.612891 -1.724054 0.355668 99 99 99
-0.250205 -0.703824 -0.039147 18 18 18
-0.610318 -1.716816 0.420658 13 13 13
-0.183529 -0.516265 -0.009564 16 16 16
-0.286661 -0.806373 0.229314 38 38 38
-0.210369 -0.579243 -0.165127 100 100 100
-0.210878 -0.580643 -0.142619 65 65 65
-0.275444 -0.758424 0.042287 35 35 35
-0.224512 -0.618184 -0.127842 58 58 58
-0.329863 -0.908264 0.084541 37 37 37
-0.232641 -0.640568 -0.107940 56 56 56
-0.348307 -0.959047 0.125282 20 20 20
-0.245305 -0.675438 -0.088233 100 100 100
-0.643978 -1.773166 0.298790 100 100 100
-0.237365 -0.653575 -0.060835 10 10 10
-0.627293 -1.727223 0.357194 95 95 95
-0.258399 -0.711491 -0.039671 18 18 18
-0.298737 -0.822561 0.234490 27 27 27
-0.213007 -0.586506 -0.167197 100 100 100
-0.212208 -0.584306 -0.143519 65 65 65
-0.273399 -0.752792 0.041973 48 48 48
-0.222501 -0.612648 -0.126697 53 53 53
-0.331223 -0.912009 0.084890 33 33 33
-0.233990 -0.644281 -0.108566 56 56 56
-0.348984 -0.960913 0.125525 22 22 22
-0.242595 -0.667974 -0.087258 100 100 100
-0.641281 -1.765739 0.297538 100 100 100
-0.246207 -0.677921 -0.063101 18 18 18
-0.627963 -1.729069 0.357576 95 95 95
-0.255672 -0.703982 -0.039252 18 18 18
-0.614007 -1.690642 0.415260 93 93 93
-0.245745 -0.676647 -0.012566 10 10 10
-0.302694 -0.833456 0.237596 19 19 19
-0.217096 -0.585004 -0.167197 100 100 100
-0.247680 -0.667416 0.012426 10 10 10
-0.217638 -0.586465 -0.144419 69 69 69
-0.281427 -0.758355 0.042392 58 58 58
-0.224041 -0.603717 -0.125171 47 47 47
-0.336196 -0.905939 0.084541 31 31 31
-0.237108 -0.638928 -0.107940 56 56 56
-0.356375 -0.960314 0.125769 23 23 23
-0.248633 -0.669987 -0.087746 20 20 20
-0.650156 -1.751959 0.295974 100 100 100
-0.252320 -0.679921 -0.063449 18 18 18
-0.640019 -1.724642 0.357576 95 95 95
-0.269614 -0.726522 -0.040613 34 34 34
-0.627151 -1.689968 0.416159 97 97 97
-0.225416 -0.607424 -0.011309 13 13 13
-0.315227 -0.849434 0.242772 6 6 6
-0.213064 -0.574138 -0.164091 10 10 10
-0.246288 -0.663667 0.012356 10 10 10
-0.220350 -0.593773 -0.146218 52 52 52
-0.279342 -0.752737 0.042078 84 84 84
-0.226090 -0.609239 -0.126316 39 39 39
-0.335503 -0.904071 0.084367 39 39 39
-0.239169 -0.644484 -0.108878 49 49 49
-0.363281 -0.978925 0.128207 23 23 23
-0.247943 -0.668126 -0.087502 23 23 23
-0.642596 -1.731588 0.292532 85 85 85
-0.252320 -0.679921 -0.063449 27 27 27
-0.640702 -1.726483 0.357958 98 98 98
-0.274478 -0.739630 -0.041345 48 48 48
-0.626473 -1.688141 0.415710 100 100 100
-0.242114 -0.652418 -0.012147 11 11 11
-0.216967 -0.572674 -0.164091 10 10 10
-0.223006 -0.588614 -0.145318 46 46 46
-0.286582 -0.756421 0.042392 94 94 94
-0.234405 -0.618701 -0.128605 39 39 39
-0.340943 -0.899903 0.084192 33 33 33
-0.244950 -0.646536 -0.109504 49 49 49
-0.367123 -0.969004 0.127232 22 22 22
-0.253891 -0.670135 -0.087990 27 27 27
-0.660666 -1.743799 0.295348 100 100 100
-0.259060 -0.683777 -0.063972 27 27 27
-0.647570 -1.709231 0.355286 95 95 95
-0.280214 -0.739612 -0.041450 48 48 48
-0.642782 -1.696594 0.418859 94 94 94
-0.259302 -0.684415 -0.012775 10 10 10
-0.218336 -0.576287 -0.165127 100 100 100
-0.255759 -0.675065 0.012601 10 10 10
-0.219554 -0.579503 -0.143069 42 42 42
-0.287998 -0.760157 0.042601 93 93 93
-0.237187 -0.626045 -0.130132 44 44 44
-0.345178 -0.911082 0.085238 34 34 34
-0.246350 -0.650230 -0.110130 48 48 48
-0.364310 -0.961579 0.126257 21 21 21
-0.256001 -0.675704 -0.088721 30 30 30
-0.657167 -1.734562 0.293784 81 81 81
-0.264001 -0.696819 -0.065192 25 25 25
-0.646178 -1.705559 0.354523 95 95 95
-0.271723 -0.717200 -0.040194 52 52 52
-0.640020 -1.689305 0.417059 97 97 97
-0.266386 -0.703115 -0.013124 9 9 9
-0.626945 -1.654793 0.474156 100 100 100
-0.224546 -0.580115 -0.166679 100 100 100
-0.274298 -0.708650 0.013264 9 9 9
-0.222288 -0.574282 -0.142169 44 44 44
-0.291267 -0.752489 0.042287 100 100 100
-0.244496 -0.631655 -0.131658 56 56 56
-0.346654 -0.895582 0.084018 30 30 30
-0.252423 -0.652135 -0.110756 48 48 48
-0.372614 -0.962650 0.126744 23 23 23
-0.257964 -0.666450 -0.087746 30 30 30
-0.668849 -1.727973 0.293471 87 87 87
-0.267542 -0.691196 -0.064844 35 35 35
-0.659784 -1.704553 0.355286 95 95 95
-0.277569 -0.717099 -0.040299 70 70 70
-0.647168 -1.671960 0.413910 100 100 100
-0.272854 -0.704920 -0.013194 9 9 9
-0.638770 -1.650264 0.474156 100 100 100
-0.224546 -0.580115 -0.166679 100 100 100
-0.282238 -0.729163 0.013648 8 8 8
-0.225805 -0.583369 -0.144419 42 42 42
-0.290546 -0.750626 0.042183 100 100 100
-0.241661 -0.624331 -0.130132 63 63 63
-0.351689 -0.908589 0.085238 23 23 23
-0.250997 -0.648451 -0.110130 48 48 48
-0.374047 -0.966352 0.127232 24 24 24
-0.259397 -0.670152 -0.088233 31 31 31
-0.271858 -0.702345 -0.065890 51 51 51
-0.662619 -1.711877 0.356813 95 95 95
-0.281174 -0.726412 -0.040822 84 84 84
-0.648575 -1.675595 0.414810 100 100 100
-0.275742 -0.712380 -0.013334 9 9 9
-0.639468 -1.652066 0.474674 100 100 100
-0.227070 -0.574979 -0.165644 100 100 100
-0.279850 -0.708626 0.013299 9 9 9
-0.234782 -0.594506 -0.147568 30 30 30
-0.295649 -0.748631 0.042183 100 100 100
-0.243020 -0.615368 -0.128605 91 91 91
-0.343229 -0.869111 0.081752 26 26 26
-0.256856 -0.650402 -0.110756 48 48 48
-0.383533 -0.971169 0.128207 23 23 23
-0.265411 -0.672064 -0.088721 29 29 29
-0.676242 -1.712357 0.291594 3 3 3
-0.275168 -0.696772 -0.065541 51 51 51
-0.671371 -1.700023 0.355286 49 49 49
-0.291980 -0.739343 -0.041659 100 100 100
-0.661397 -1.674767 0.415710 100 100 100
-0.286461 -0.725365 -0.013613 8 8 8
-0.643602 -1.629707 0.469498 98 98 98
-0.224941 -0.569589 -0.164091 10 10 10
-0.282788 -0.716066 0.013438 8 8 8
-0.233350 -0.590881 -0.146668 30 30 30
-0.299317 -0.757919 0.042706 100 100 100
-0.244463 -0.619020 -0.129368 89 89 89
-0.335178 -0.848727 0.079835 20 20 20
-0.253954 -0.643052 -0.109504 49 49 49
-0.384991 -0.974862 0.128694 21 21 21
-0.269056 -0.681295 -0.089940 26 26 26
-0.688577 -1.743591 0.296913 8 8 8
-0.270777 -0.685653 -0.064495 44 44 44
-0.291980 -0.739343 -0.041659 100 100 100
-0.658534 -1.667517 0.413910 100 100 100
-0.301151 -0.762564 -0.014311 15 15 15
-0.642892 -1.627910 0.468980 100 100 100
-0.231700 -0.575212 -0.166162 11 11 11
-0.293633 -0.728963 0.013718 8 8 8
-0.232270 -0.576626 -0.143519 34 34 34
-0.303722 -0.754012 0.042601 93 93 93
-0.249404 -0.619163 -0.129750 82 82 82
-0.334992 -0.831641 0.078440 23 23 23
-0.258325 -0.641309 -0.109504 49 49 49
-0.384201 -0.953805 0.126257 23 23 23
-0.270721 -0.672083 -0.088965 22 22 22
-0.278416 -0.691186 -0.065192 51 51 51
-0.677059 -1.680845 0.352233 6 6 6
-0.295514 -0.733633 -0.041450 100 100 100
-0.671325 -1.666611 0.414810 100 100 100
-0.313059 -0.777190 -0.014625 13 13 13
-0.653958 -1.623496 0.468980 100 100 100
-0.232422 -0.577004 -0.166679 11 11 11
-0.303346 -0.753077 0.014171 15 15 15
-0.234454 -0.582048 -0.144868 31 31 31
-0.297006 -0.737338 0.041659 99 99 99
-0.249404 -0.619163 -0.129750 70 70 70
-0.332759 -0.826097 0.077917 24 24 24
-0.263491 -0.654135 -0.111694 41 41 41
-0.387168 -0.961171 0.127232 20 20 20
-0.267012 -0.662876 -0.087746 20 20 20
-0.698215 -1.733366 0.295974 96 96 96
-0.280649 -0.696731 -0.065715 51 51 51
-0.677792 -1.682666 0.352615 6 6 6
-0.297752 -0.739191 -0.041764 100 100 100
-0.664044 -1.648535 0.410311 41 41 41
-0.321278 -0.797594 -0.015009 24 24 24
-0.656846 -1.630664 0.471051 100 100 100
-0.236445 -0.575368 -0.166679 11 11 11
-0.316197 -0.769437 0.014520 13 13 13
-0.244438 -0.594817 -0.148468 30 30 30
-0.305183 -0.742636 0.042078 96 96 96
-0.248497 -0.604695 -0.127079 53 53 53
-0.338518 -0.823754 0.077917 24 24 24
-0.271055 -0.659588 -0.112946 28 28 28
-0.396887 -0.965789 0.128207 19 19 19
-0.271634 -0.660996 -0.087746 100 100 100
-0.700538 -1.704697 0.291907 70 70 70
-0.283992 -0.691069 -0.065367 60 60 60
-0.690269 -1.679709 0.352997 21 21 21
-0.307461 -0.748178 -0.042392 100 100 100
-0.675537 -1.643859 0.410311 52 52 52
-0.319997 -0.778685 -0.014695 47 47 47
-0.666745 -1.622465 0.470015 100 100 100
-0.233508 -0.568220 -0.164609 11 11 11
-0.316957 -0.771286 0.014555 13 13 13
-0.246660 -0.600225 -0.149817 47 47 47
-0.307461 -0.748178 0.042392 82 82 82
-0.248497 -0.604695 -0.127079 53 53 53
-0.341547 -0.831125 0.078614 22 22 22
-0.264297 -0.643144 -0.110130 24 24 24
-0.395378 -0.962117 0.127719 20 20 20
-0.276161 -0.672013 -0.089208 100 100 100
-0.699787 -1.702870 0.291594 63 63 63
-0.283992 -0.691069 -0.065367 60 60 60
-0.693254 -1.686972 0.354523 59 59 59
-0.308979 -0.751873 -0.042601 100 100 100
-0.677759 -1.649266 0.411660 62 62 62
-0.319997 -0.778685 -0.014695 54 54 54
-0.661605 -1.609957 0.466392 98 98 98
-0.237469 -0.566576 -0.164609 11 11 11
-0.316150 -0.754301 0.014276 21 21 21
-0.256870 -0.612866 -0.153417 100 100 100
-0.314993 -0.751540 0.042706 69 69 69
-0.254230 -0.606567 -0.127842 52 52 52
-0.342720 -0.817695 0.077569 18 18 18
-0.276417 -0.659502 -0.113259 17 17 17
-0.406689 -0.970318 0.129182 13 13 13
-0.277776 -0.662745 -0.088233 100 100 100
-0.710895 -1.696121 0.291281 43 43 43
-0.286499 -0.683557 -0.064844 70 70 70
-0.699702 -1.669417 0.351852 99 99 99
-0.310360 -0.740488 -0.042078 100 100 100
-0.690010 -1.646292 0.412110 79 79 79
-0.323107 -0.770899 -0.014590 63 63 63
-0.672082 -1.603517 0.465874 100 100 100
-0.240456 -0.573703 -0.166679 11 11 11
-0.316150 -0.754301 0.014276 21 21 21
-0.248584 -0.593096 -0.148468 100 100 100
-0.315765 -0.753382 0.042811 45 45 45
-0.258784 -0.617431 -0.130132 57 57 57
-0.343491 -0.819533 0.077743 18 18 18
-0.283289 -0.675898 -0.116074 21 21 21
-0.402085 -0.959333 0.127719 11 11 11
-0.281613 -0.671899 -0.089452 93 93 93
-0.710895 -1.696121 0.291281 32 32 32
-0.290350 -0.692744 -0.065715 68 68 68
-0.701979 -1.674849 0.352997 90 90 90
-0.308816 -0.736804 -0.041869 100 100 100
-0.693023 -1.653481 0.413910 100 100 100
-0.324653 -0.774588 -0.014660 67 67 67
-0.675069 -1.610644 0.467945 100 100 100
-0.249010 -0.582669 -0.169785 11 11 11
-0.330838 -0.774141 0.014695 39 39 39
-0.253485 -0.593138 -0.148918 100 100 100
-0.321016 -0.751159 0.042811 56 56 56
-0.260773 -0.610193 -0.128987 65 65 65
-0.346072 -0.809787 0.077046 12 12 12
-0.282567 -0.661189 -0.113884 39 39 39
-0.407212 -0.952852 0.127232 7 7 7
-0.279276 -0.653488 -0.087258 88 88 88
-0.722718 -1.691117 0.291281 16 16 16
-0.300660 -0.703525 -0.066936 56 56 56
-0.709797 -1.660881 0.351089 43 43 43
-0.317877 -0.743813 -0.042392 100 100 100
-0.700720 -1.639642 0.411660 100 100 100
-0.330838 -0.774141 -0.014695 67 67 67
-0.687815 -1.609445 0.468980 100 100 100
-0.247492 -0.579116 -0.168750 11 11 11
-0.330052 -0.772302 0.014660 53 53 53
-0.255782 -0.598514 -0.150267 100 100 100
-0.319447 -0.747486 0.042601 58 58 58
-0.258459 -0.604777 -0.127842 65 65 65
-0.352335 -0.824443 0.078440 11 11 11
-0.278685 -0.652106 -0.112320 51 51 51
-0.395511 -0.925471 0.123576 3 3 3
-0.282396 -0.660790 -0.088233 86 86 86
-0.716508 -1.676586 0.288778 8 8 8
-0.303791 -0.710853 -0.067633 47 47 47
-0.714426 -1.671713 0.353378 69 69 69
-0.317092 -0.741976 -0.042287 100 100 100
-0.692296 -1.619931 0.406712 100 100 100
-0.330838 -0.774141 -0.014695 60 60 60
-0.686296 -1.605892 0.467945 100 100 100
-0.249986 -0.573832 -0.167715 11 11 11
-0.336234 -0.771812 0.014695 71 71 71
-0.260732 -0.598501 -0.150717 100 100 100
-0.331039 -0.759886 0.043439 76 76 76
-0.257186 -0.590359 -0.125171 74 74 74
-0.345351 -0.792738 0.075651 6 6 6
-0.284020 -0.651956 -0.112633 46 46 46
-0.385313 -0.884469 0.118457 6 6 6
-0.287002 -0.658802 -0.088233 77 77 77
-0.725829 -1.666110 0.287839 6 6 6
-0.300789 -0.690449 -0.065890 51 51 51
-0.726863 -1.668484 0.353760 68 68 68
-0.329443 -0.756224 -0.043229 100 100 100
-0.708258 -1.625778 0.409411 100 100 100
-0.334637 -0.768146 -0.014625 34 34 34
-0.692861 -1.590435 0.464839 100 100 100
-0.249986 -0.573832 -0.167715 11 11 11
-0.333839 -0.766313 0.014590 74 74 74
-0.261511 -0.600287 -0.151167 97 97 97
-0.331039 -0.759886 0.043439 87 87 87
-0.266595 -0.611958 -0.129750 70 70 70
-0.350125 -0.803698 0.076697 6 6 6
-0.280075 -0.642901 -0.111068 47 47 47
-0.385313 -0.884469 0.118457 6 6 6
-0.288588 -0.662442 -0.088721 66 66 66
-0.728195 -1.671543 0.288778 6 6 6
-0.299198 -0.686796 -0.065541 51 51 51
-0.719022 -1.650486 0.349944 66 66 66
-0.328646 -0.754393 -0.043125 100 100 100
-0.709815 -1.629351 0.410311 100 100 100
-0.335436 -0.769979 -0.014660 27 27 27
-0.692861 -1.590435 0.464839 100 100 100
-0.253202 -0.570307 -0.167197 11 11 11
-0.348106 -0.784068 0.014974 66 66 66
-0.265695 -0.598447 -0.151167 100 100 100
-0.335525 -0.755731 0.043334 99 99 99
-0.269267 -0.606493 -0.128987 71 71 71
-0.358961 -0.808518 0.077394 6 6 6
-0.283755 -0.639125 -0.110756 36 36 36
-0.388256 -0.874501 0.117482 4 4 4
-0.293206 -0.660411 -0.088721 57 57 57
-0.740649 -1.668224 0.289091 7 7 7
-0.308028 -0.693796 -0.066413 66 66 66
-0.724154 -1.631071 0.346891 70 70 70
-0.329042 -0.741127 -0.042497 100 100 100
-0.719591 -1.620793 0.409411 100 100 100
-0.354597 -0.798689 -0.015253 28 28 28
-0.704732 -1.587325 0.465357 100 100 100
-0.258689 -0.582667 -0.170821 11 11 11
-0.357032 -0.804172 0.015358 64 64 64
-0.264114 -0.594885 -0.150267 100 100 100
-0.335525 -0.755731 0.043334 99 99 99
-0.270861 -0.610081 -0.129750 70 70 70
-0.365429 -0.823086 0.078789 11 11 11
-0.282953 -0.637319 -0.110443 30 30 30
-0.393895 -0.887201 0.119188 5 5 5
-0.289178 -0.651340 -0.087502 29 29 29
-0.744657 -1.677251 0.290655 8 8 8
-0.308028 -0.693796 -0.066413 66 66 66
-0.724950 -1.632865 0.347272 75 75 75
-0.327421 -0.737476 -0.042287 100 100 100
-0.713265 -1.606545 0.405812 100 100 100
-0.354597 -0.798689 -0.015253 46 46 46
-0.703948 -1.585559 0.464839 100 100 100
-0.261752 -0.579178 -0.170303 11 11 11
-0.364828 -0.807253 0.015463 63 63 63
-0.268856 -0.594896 -0.150717 100 100 100
-0.345465 -0.764409 0.043962 84 84 84
-0.273284 -0.604694 -0.128987 84 84 84
-0.367598 -0.813382 0.078092 11 11 11
-0.291242 -0.644429 -0.112007 23 23 23
-0.394865 -0.873715 0.117726 11 11 11
-0.295127 -0.653025 -0.087990 39 39 39
-0.751696 -1.663275 0.289091 17 17 17
-0.316725 -0.700815 -0.067284 56 56 56
-0.741424 -1.640544 0.349944 80 80 80
-0.338885 -0.749849 -0.043125 100 100 100
-0.723904 -1.601779 0.405812 100 100 100
-0.354946 -0.785386 -0.015044 49 49 49
-0.716039 -1.584376 0.465874 100 100 100
-0.256979 -0.568615 -0.167197 11 11 11
-0.350004 -0.774453 0.014835 50 50 50
-0.273671 -0.605551 -0.153417 98 98 98
-0.347933 -0.769869 0.044276 82 82 82
-0.272475 -0.602905 -0.128605 97 97 97
-0.351187 -0.777070 0.074605 14 14 14
-0.293682 -0.649829 -0.112946 23 23 23
-0.404675 -0.895423 0.120651 2 2 2
-0.294309 -0.651216 -0.087746 48 48 48
-0.749256 -1.657875 0.288152 49 49 49
-0.310981 -0.688106 -0.066064 58 58 58
-0.733338 -1.622654 0.346128 59 59 59
-0.335595 -0.742569 -0.042706 100 100 100
-0.723904 -1.601779 0.405812 100 100 100
-0.353298 -0.781742 -0.014974 50 50 50
-0.709675 -1.570293 0.461733 100 100 100
-0.259326 -0.563298 -0.166162 11 11 11
-0.351221 -0.762908 0.014660 59 59 59
-0.274632 -0.596545 -0.151617 90 90 90
-0.361651 -0.785564 0.045323 84 84 84
-0.277499 -0.602771 -0.128987 100 100 100
-0.361603 -0.785458 0.075651 13 13 13
-0.289951 -0.629820 -0.109817 30 30 30
-0.405105 -0.879953 0.118944 1 1 1
-0.298018 -0.647343 -0.087502 59 59 59
-0.766594 -1.665164 0.290342 76 76 76
-0.317444 -0.689538 -0.066413 57 57 57
-0.347452 -0.754722 -0.043544 100 100 100
-0.739959 -1.607307 0.408511 100 100 100
-0.358747 -0.779256 -0.014974 50 50 50
-0.720620 -1.565300 0.461733 100 100 100
-0.264173 -0.573827 -0.169268 11 11 11
-0.350385 -0.761092 0.014625 72 72 72
-0.276262 -0.600085 -0.152517 100 100 100
-0.364992 -0.792821 0.045742 91 91 91
-0.283246 -0.615254 -0.131658 100 100 100
-0.355770 -0.772789 0.074431 14 14 14
-0.293255 -0.636997 -0.111068 41 41 41
-0.410086 -0.890772 0.120407 1 1 1
-0.298848 -0.649146 -0.087746 58 58 58
-0.764942 -1.661575 0.289717 90 90 90
-0.321610 -0.698587 -0.067284 48 48 48
-0.743828 -1.615712 0.345746 7 7 7
-0.344947 -0.749279 -0.043229 100 100 100
-0.736699 -1.600226 0.406712 100 100 100
-0.362929 -0.788338 -0.015149 41 41 41
-0.722236 -1.568810 0.462768 100 100 100
-0.269813 -0.575467 -0.170303 100 100 100
-0.355690 -0.758627 0.014625 79 79 79
-0.277963 -0.592848 -0.151167 97 97 97
-0.364583 -0.777595 0.045009 100 100 100
-0.285867 -0.609707 -0.130895 100 100 100
-0.365386 -0.779307 0.075303 21 21 21
-0.301050 -0.642088 -0.112320 46 46 46
-0.417138 -0.889685 0.120651 1 1 1
-0.305058 -0.650638 -0.088233 57 57 57
-0.772330 -1.647252 0.288152 73 73 73
-0.325633 -0.694521 -0.067110 48 48 48
-0.762590 -1.626478 0.349180 9 9 9
-0.346778 -0.739619 -0.042811 100 100 100
-0.744543 -1.587987 0.404912 100 100 100
-0.368423 -0.785785 -0.015149 29 29 29
-0.736451 -1.570726 0.464839 100 100 100
-0.271453 -0.578965 -0.171338 100 100 100
-0.356539 -0.760438 0.014660 100 100 100
-0.282926 -0.603435 -0.153867 100 100 100
-0.359496 -0.766744 0.044381 100 100 100
-0.284200 -0.606152 -0.130132 100 100 100
-0.362848 -0.773895 0.074780 21 21 21
-0.306081 -0.652820 -0.114197 56 56 56
-0.416295 -0.887888 0.120407 2 2 2
-0.306744 -0.654233 -0.088721 38 38 38
-0.774008 -1.650829 0.288778 43 43 43
-0.324787 -0.692717 -0.066936 32 32 32
-0.764257 -1.630033 0.349944 37 37 37
-0.351017 -0.748661 -0.043334 100 100 100
-0.741234 -1.580929 0.403112 100 100 100
-0.359934 -0.767680 -0.014800 32 32 32
-0.734810 -1.567228 0.463804 100 100 100
-0.271327 -0.568339 -0.168750 100 100 100
-0.359254 -0.752516 0.014555 100 100 100
-0.281255 -0.589135 -0.150717 87 87 87
-0.364840 -0.764216 0.044381 100 100 100
-0.288425 -0.604153 -0.130132 100 100 100
-0.362234 -0.758757 0.073559 31 31 31
-0.312333 -0.654232 -0.114823 71 71 71
-0.424194 -0.888543 0.120894 2 2 2
-0.315580 -0.661033 -0.089940 37 37 37
-0.324465 -0.679645 -0.065890 34 34 34
-0.769697 -1.612256 0.347272 87 87 87
-0.362258 -0.758809 -0.044067 100 100 100
-0.755611 -1.582750 0.404912 100 100 100
-0.368731 -0.772367 -0.014939 31 31 31
-0.739075 -1.548113 0.459663 100 100 100
-0.268830 -0.563109 -0.167197 100 100 100
-0.350639 -0.734470 0.014206 66 66 66
-0.290491 -0.608479 -0.155666 100 100 100
-0.366561 -0.767821 0.044590 23 23 23
-0.293500 -0.614783 -0.132421 100 100 100
-0.367384 -0.769545 0.074605 36 36 36
-0.310631 -0.650667 -0.114197 100 100 100
-0.424194 -0.888543 0.120894 2 2 2
-0.317290 -0.664616 -0.090427 36 36 36
-0.453606 -0.950152 0.166759 6 6 6
-0.329615 -0.690433 -0.066936 24 24 24
-0.768006 -1.608712 0.346509 100 100 100
-0.359677 -0.753402 -0.043753 100 100 100
-0.757290 -1.586267 0.405812 100 100 100
-0.365285 -0.765148 -0.014800 32 32 32
-0.739075 -1.548113 0.459663 100 100 100
-0.274444 -0.564693 -0.168232 100 100 100
-0.355758 -0.732004 0.014206 81 81 81
-0.289621 -0.595920 -0.152967 100 100 100
-0.381516 -0.785003 0.045742 34 34 34
-0.299501 -0.616251 -0.133185 100 100 100
-0.377973 -0.777713 0.075651 55 55 55
-0.312576 -0.643152 -0.113259 100 100 100
-0.419974 -0.864135 0.117970 4 4 4
-0.325393 -0.669526 -0.091402 35 35 35
-0.465409 -0.957622 0.168636 12 12 12
-0.331815 -0.682739 -0.066413 24 24 24
-0.780076 -1.605077 0.346891 100 100 100
-0.359690 -0.740094 -0.043125 100 100 100
-0.766643 -1.577436 0.404912 100 100 100
-0.369744 -0.760781 -0.014765 33 33 33
-0.753243 -1.549866 0.461733 100 100 100
-0.280355 -0.576856 -0.171856 100 100 100
-0.354884 -0.730206 0.014171 82 82 82
-0.289621 -0.595920 -0.152967 100 100 100
-0.373658 -0.768836 0.044800 36 36 36
-0.302076 -0.621548 -0.134330 100 100 100
-0.380585 -0.783089 0.076174 72 72 72
-0.316029 -0.650259 -0.114510 100 100 100
-0.425180 -0.874847 0.119432 2 2 2
-0.320187 -0.658814 -0.089940 46 46 46
-0.459365 -0.945185 0.166446 1 1 1
-0.334427 -0.688115 -0.066936 24 24 24
-0.772352 -1.589185 0.343456 100 100 100
-0.357944 -0.736502 -0.042915 100 100 100
-0.761532 -1.566920 0.402212 100 100 100
-0.360129 -0.740997 -0.014381 29 29 29
-0.753243 -1.549866 0.461733 100 100 100
-0.282563 -0.571471 -0.170821 100 100 100
-0.364278 -0.736736 0.014346 64 64 64
-0.294534 -0.595682 -0.153417 100 100 100
-0.385080 -0.778807 0.045532 42 42 42
-0.301078 -0.608918 -0.132040 100 100 100
-0.388556 -0.785838 0.076697 78 78 78
-0.321324 -0.649864 -0.114823 99 99 99
-0.429366 -0.868374 0.118944 4 4 4
-0.322024 -0.651280 -0.089208 75 75 75
-0.448277 -0.906622 0.160189 2 2 2
-0.342636 -0.692966 -0.067633 15 15 15
-0.793594 -1.605010 0.348036 100 100 100
-0.364719 -0.737629 -0.043125 100 100 100
-0.772180 -1.561700 0.402212 100 100 100
-0.366050 -0.740321 -0.014416 29 29 29
-0.763775 -1.544703 0.461733 100 100 100
-0.280850 -0.568007 -0.169785 100 100 100
-0.368709 -0.745699 0.014520 68 68 68
-0.300580 -0.607910 -0.156566 100 100 100
-0.392162 -0.793130 0.046370 47 47 47
-0.302819 -0.612438 -0.132803 100 100 100
-0.389439 -0.787624 0.076871 70 70 70
-0.323950 -0.655176 -0.115762 59 59 59
-0.425846 -0.861256 0.117970 6 6 6
-0.331703 -0.670854 -0.091889 96 96 96
-0.443024 -0.895997 0.158312 2 2 2
-0.337337 -0.682250 -0.066587 16 16 16
-0.784892 -1.587411 0.344219 100 100 100
-0.367375 -0.743000 -0.043439 100 100 100
-0.772180 -1.561700 0.402212 100 100 100
-0.369596 -0.747491 -0.014555 28 28 28
-0.758638 -1.534312 0.458627 100 100 100
-0.283072 -0.562581 -0.168750 100 100 100
-0.370311 -0.735961 0.014381 71 71 71
-0.304817 -0.605797 -0.156566 100 100 100
-0.401280 -0.797509 0.046788 47 47 47
-0.307969 -0.612063 -0.133185 100 100 100
-0.391346 -0.777767 0.076174 59 59 59
-0.321413 -0.638782 -0.113259 57 57 57
-0.424711 -0.844076 0.116020 7 7 7
-0.334593 -0.664976 -0.091402 100 100 100
-0.443053 -0.880530 0.156122 1 1 1
-0.342092 -0.679879 -0.066587 16 16 16
-0.790660 -1.571370 0.341930 100 100 100
-0.373451 -0.742201 -0.043544 100 100 100
-0.783063 -1.556271 0.402212 100 100 100
-0.379299 -0.753824 -0.014730 26 26 26
-0.769331 -1.528979 0.458627 100 100 100
-0.286545 -0.569484 -0.170821 100 100 100
-0.373007 -0.741320 0.014485 55 55 55
-0.296933 -0.590130 -0.152517 98 98 98
-0.401280 -0.797509 0.046788 53 53 53
-0.313264 -0.622585 -0.135474 99 99 99
-0.401197 -0.797345 0.078092 52 52 52
-0.318750 -0.633488 -0.112320 57 57 57
-0.427387 -0.849396 0.116751 8 8 8
-0.342624 -0.680935 -0.093596 100 100 100
-0.434174 -0.862885 0.152993 2 2 2
-0.346570 -0.688778 -0.067459 23 23 23
-0.795073 -1.580139 0.343838 35 35 35
-0.363576 -0.722576 -0.042392 100 100 100
-0.783063 -1.556271 0.402212 100 100 100
-0.383793 -0.762756 -0.014904 25 25 25
-0.769331 -1.528979 0.458627 100 100 100
-0.292275 -0.570909 -0.171856 100 100 100
-0.379085 -0.740478 0.014520 61 61 61
-0.305486 -0.596716 -0.154766 100 100 100
-0.401377 -0.784022 0.046160 53 53 53
-0.316708 -0.618636 -0.135093 76 76 76
-0.412201 -0.805165 0.079137 37 37 37
-0.328566 -0.641797 -0.114197 56 56 56
-0.421547 -0.823420 0.113582 13 13 13
-0.337418 -0.659090 -0.090915 100 100 100
-0.437487 -0.854557 0.152054 2 2 2
-0.350462 -0.684568 -0.067284 32 32 32
-0.367701 -0.718242 -0.042287 100 100 100
-0.787693 -1.538624 0.399063 100 100 100
-0.381819 -0.745818 -0.014625 34 34 34
-0.783507 -1.530449 0.460698 100 100 100
-0.292275 -0.570909 -0.171856 100 100 100
-0.379996 -0.742258 0.014555 47 47 47
-0.307262 -0.600185 -0.155666 100 100 100
-0.401377 -0.784022 0.046160 53 53 53
-0.314024 -0.613393 -0.133948 72 72 72
-0.416741 -0.814033 0.080009 35 35 35
-0.330366 -0.645314 -0.114823 60 60 60
-0.420642 -0.821653 0.113338 11 11 11
-0.342846 -0.669692 -0.092377 94 94 94
-0.414983 -0.810599 0.144233 4 4 4
-0.353186 -0.689888 -0.067807 46 46 46
-0.369522 -0.721798 -0.042497 100 100 100
-0.781476 -1.526482 0.395914 100 100 100
-0.369061 -0.720898 -0.014136 54 54 54
-0.780866 -1.525290 0.459145 100 100 100
-0.295361 -0.567141 -0.171338 100 100 100
-0.381474 -0.732493 0.014416 28 28 28
-0.314145 -0.603210 -0.157016 100 100 100
-0.410531 -0.788286 0.046579 48 48 48
-0.319206 -0.612927 -0.134330 66 66 66
-0.413211 -0.793433 0.078266 34 34 34
-0.336688 -0.646496 -0.115449 66 66 66
-0.431870 -0.829261 0.114801 8 8 8
-0.347513 -0.667282 -0.092377 86 86 86
-0.404208 -0.776145 0.138601 5 5 5
-0.352472 -0.676803 -0.066761 56 56 56
-0.350945 -0.673871 0.147686 5 5 5
-0.377319 -0.724515 -0.042811 87 87 87
-0.797515 -1.531359 0.398613 100 100 100
-0.368543 -0.707663 -0.013927 73 73 73
-0.787034 -1.511234 0.456557 100 100 100
-0.292684 -0.562001 -0.169785 100 100 100
-0.384245 -0.737814 0.014520 27 27 27
-0.308744 -0.592840 -0.154316 87 87 87
-0.409608 -0.786515 0.046474 45 45 45
-0.322833 -0.619892 -0.135856 58 58 58
-0.410450 -0.788131 0.077743 24 24 24
-0.330301 -0.634232 -0.113259 80 80 80
-0.427285 -0.820457 0.113582 11 11 11
-0.353015 -0.677846 -0.093839 90 90 90
-0.407858 -0.783154 0.139852 4 4 4
-0.349711 -0.671502 -0.066238 75 75 75
-0.340063 -0.652976 0.143107 5 5 5
-0.374552 -0.719200 -0.042497 89 89 89
-0.802916 -1.541730 0.401313 100 100 100
-0.363001 -0.697021 -0.013718 86 86 86
-0.787926 -1.512948 0.457074 98 98 98
-0.300217 -0.566773 -0.171856 100 100 100
-0.393131 -0.742181 0.014660 33 33 33
-0.310139 -0.585504 -0.152967 91 91 91
-0.411349 -0.776576 0.046056 38 38 38
-0.330829 -0.624563 -0.137382 57 57 57
-0.422470 -0.797571 0.078963 22 22 22
-0.338419 -0.638893 -0.114510 99 99 99
-0.419994 -0.792896 0.110170 20 20 20
-0.356809 -0.673611 -0.093596 75 75 75
-0.411466 -0.776796 0.139227 5 5 5
-0.361851 -0.683129 -0.067633 78 78 78
-0.343694 -0.648851 0.142725 5 5 5
-0.372084 -0.702448 -0.041659 63 63 63
-0.815484 -1.539531 0.402212 100 100 100
-0.374410 -0.706839 -0.013962 73 73 73
-0.799374 -1.509117 0.457592 100 100 100
-0.298409 -0.563358 -0.170821 100 100 100
-0.401555 -0.758085 0.014974 48 48 48
-0.307403 -0.580338 -0.151617 47 47 47
-0.408545 -0.771281 0.045742 38 38 38
-0.321639 -0.607214 -0.133566 54 54 54
-0.419673 -0.792289 0.078440 23 23 23
-0.341193 -0.644130 -0.115449 100 100 100
-0.417206 -0.787633 0.109439 21 21 21
-0.350305 -0.661331 -0.091889 87 87 87
-0.431808 -0.815199 0.146110 3 3 3
-0.366514 -0.691933 -0.068504 91 91 91
-0.380498 -0.718333 -0.042601 44 44 44
-0.806362 -1.522310 0.397713 100 100 100
-0.378154 -0.713908 -0.014102 55 55 55
-0.802991 -1.515946 0.459663 100 100 100
-0.305999 -0.568064 -0.172891 100 100 100
-0.400199 -0.742940 0.014730 65 65 65
-0.314219 -0.583324 -0.152967 28 28 28
-0.411078 -0.763135 0.045428 36 36 36
-0.326801 -0.606682 -0.133948 60 60 60
-0.421414 -0.782324 0.077743 18 18 18
-0.349429 -0.648688 -0.116700 96 96 96
-0.411398 -0.763729 0.106514 24 24 24
-0.356796 -0.662365 -0.092377 86 86 86
-0.418752 -0.777383 0.139852 4 4 4
