-0.418463 -1.903280 -0.449902 20 20 20
-0.687498 -3.126920 0.167789 7 7 7
-0.443081 -2.015246 -0.401081 1 1 1
-0.752564 -3.422858 0.306614 8 8 8
-0.144222 -0.655961 -0.106375 17 17 17
-0.741283 -3.371546 0.423862 1 1 1
-0.141095 -0.641738 -0.080678 14 14 14
-0.794071 -3.611641 0.585691 1 1 1
-0.782874 -3.560716 0.708665 1 1 1
-0.562693 -2.559276 -0.137330 1 1 1
-0.759093 -3.452551 0.816122 1 1 1
-0.589144 -2.679581 -0.047889 5 5 5
-0.757907 -3.447158 0.945725 1 1 1
-0.395339 -1.798107 -0.493309 25 25 25
-0.640243 -2.911993 0.052043 2 2 2
-0.418045 -1.901377 -0.449452 23 23 23
-0.688785 -3.132772 0.168103 9 9 9
-0.437179 -1.988402 -0.395738 1 1 1
-0.749569 -3.409237 0.305394 8 8 8
-0.139132 -0.632809 -0.102621 18 18 18
-0.735315 -3.344403 0.420449 1 1 1
-0.138538 -0.630105 -0.079215 15 15 15
-0.797040 -3.625147 0.587881 1 1 1
-0.786668 -3.577973 0.712099 1 1 1
-0.756582 -3.441131 0.813423 1 1 1
-0.592579 -2.695205 -0.048169 11 11 11
-0.760396 -3.458479 0.948831 1 1 1
-0.407883 -1.795303 -0.493309 27 27 27
-0.656127 -2.887952 0.051694 5 5 5
-0.429582 -1.890811 -0.447653 21 21 21
-0.709754 -3.123992 0.167894 7 7 7
-0.451049 -1.985301 -0.395738 5 5 5
-0.768055 -3.380606 0.303302 2 2 2
-0.140921 -0.620265 -0.100744 18 18 18
-0.752048 -3.310152 0.416793 1 1 1
-0.149090 -0.656223 -0.082627 13 13 13
-0.821891 -3.617568 0.587568 1 1 1
-0.804669 -3.541763 0.705993 1 1 1
-0.776701 -3.418663 0.809374 1 1 1
-0.610052 -2.685152 -0.048064 7 7 7
-0.804638 -3.541627 0.973160 1 1 1
-0.408739 -1.799071 -0.494344 26 26 26
-0.655684 -2.886002 0.051659 9 9 9
-0.427423 -1.881310 -0.445403 20 20 20
-0.711081 -3.129835 0.168208 3 3 3
-0.451484 -1.987216 -0.396119 10 10 10
-0.761875 -3.353406 0.300862 1 1 1
-0.145297 -0.639527 -0.103872 18 18 18
-0.741493 -3.263694 0.410943 1 1 1
-0.148211 -0.652352 -0.082140 14 14 14
-0.824079 -3.627199 0.589132 1 1 1
-0.809888 -3.564736 0.710573 1 1 1
-0.777133 -3.420563 0.809824 1 1 1
-0.814054 -3.583071 0.984548 1 1 1
-0.420406 -1.792412 -0.493309 27 27 27
-0.676729 -2.885248 0.051729 11 11 11
-0.439657 -1.874485 -0.444503 19 19 19
-0.726985 -3.099516 0.166847 1 1 1
-0.464002 -1.978281 -0.394975 12 12 12
-0.793457 -3.382921 0.303999 1 1 1
-0.490323 -2.090502 -0.340089 1 1 1
-0.753834 -3.213987 0.405337 1 1 1
-0.150495 -0.641638 -0.080921 14 14 14
-0.854344 -3.642513 0.592574 1 1 1
-0.146498 -0.624599 -0.056128 18 18 18
-0.836100 -3.564729 0.711718 1 1 1
-0.159627 -0.680571 -0.036635 10 10 10
-0.841933 -3.589601 0.851215 1 1 1
-0.650701 -2.774277 -0.049739 1 1 1
-0.679356 -2.896447 0.797163 1 1 1
-0.421289 -1.796174 -0.494344 28 28 28
-0.675816 -2.881355 0.051659 9 9 9
-0.440547 -1.878280 -0.445403 20 20 20
-0.725617 -3.093682 0.166533 1 1 1
-0.463553 -1.976370 -0.394593 6 6 6
-0.490323 -2.090502 -0.340089 3 3 3
-0.747941 -3.188863 0.402169 1 1 1
-0.153668 -0.655166 -0.082627 13 13 13
-0.854344 -3.642513 0.592574 1 1 1
-0.153778 -0.655635 -0.058917 17 17 17
-0.858515 -3.660299 0.730798 1 1 1
-0.148681 -0.633904 -0.034123 12 12 12
-0.849053 -3.619957 0.858413 1 1 1
-0.836401 -3.566016 0.981442 1 1 1
-0.431092 -1.781923 -0.491239 26 26 26
-0.699206 -2.890172 0.051903 3 3 3
-0.453649 -1.875158 -0.445403 23 23 23
-0.776784 -3.210841 0.173127 1 1 1
-0.477340 -1.973086 -0.394593 11 11 11
-0.504441 -2.085108 -0.339776 5 5 5
-0.768785 -3.177775 0.401438 1 1 1
-0.154504 -0.638642 -0.080678 14 14 14
-0.880217 -3.638379 0.592887 1 1 1
-0.154135 -0.637117 -0.057348 18 18 18
-0.887279 -3.667573 0.733470 1 1 1
-0.160617 -0.663910 -0.035798 11 11 11
-0.882553 -3.648035 0.866511 1 1 1
-0.865819 -3.578867 0.986618 1 1 1
-0.432001 -1.785678 -0.492274 25 25 25
-0.455481 -1.882735 -0.447203 22 22 22
-0.477340 -1.973086 -0.394593 19 19 19
-0.502583 -2.077428 -0.338524 8 8 8
-0.770185 -3.183563 0.402169 2 2 2
-0.161972 -0.669513 -0.084577 13 13 13
-0.907157 -3.749739 0.611033 1 1 1
-0.151324 -0.625498 -0.056303 18 18 18
-0.716471 -2.961537 0.592271 1 1 1
-0.154042 -0.636733 -0.034332 12 12 12
-0.882553 -3.648035 0.866511 1 1 1
-0.871270 -3.601399 0.992830 1 1 1
-0.444457 -1.782618 -0.492274 26 26 26
-0.467671 -1.875727 -0.446303 10 10 10
-0.491103 -1.969705 -0.394593 22 22 22
-0.517551 -2.075786 -0.338837 11 11 11
-0.794312 -3.185813 0.403144 1 1 1
-0.540267 -2.166892 -0.274206 1 1 1
-0.156651 -0.628292 -0.056651 18 18 18
-0.919511 -3.687959 0.738812 1 1 1
-0.164281 -0.658897 -0.035588 11 11 11
-0.903285 -3.622877 0.862012 1 1 1
-0.867415 -3.479011 0.960736 1 1 1
-0.444457 -1.782618 -0.492274 25 25 25
-0.155290 -0.622835 0.011204 19 19 19
-0.466257 -1.870055 -0.444953 9 9 9
-0.490628 -1.967800 -0.394211 20 20 20
-0.518507 -2.079619 -0.339463 10 10 10
-0.546510 -2.191932 -0.277375 4 4 4
-0.769876 -3.087803 0.504032 1 1 1
-0.157133 -0.630225 -0.056826 18 18 18
-0.916662 -3.676529 0.736523 1 1 1
-0.162349 -0.651145 -0.035170 11 11 11
-0.877827 -3.520771 0.837718 1 1 1
-0.157225 -0.630596 -0.011344 22 22 22
-0.866013 -3.473388 0.959183 1 1 1
-0.457852 -1.783215 -0.493309 27 27 27
-0.145710 -0.567503 0.010227 22 22 22
-0.480270 -1.870529 -0.445853 22 22 22
-0.140069 -0.545532 0.029517 15 15 15
-0.500448 -1.949114 -0.391158 12 12 12
-0.532030 -2.072122 -0.338837 14 14 14
-0.564761 -2.199600 -0.278837 7 7 7
-0.163511 -0.636832 -0.057523 18 18 18
-0.164904 -0.642258 -0.034751 12 12 12
-0.851983 -3.318255 0.790928 1 1 1
-0.161624 -0.629483 -0.011344 22 22 22
-0.895045 -3.485969 0.964360 1 1 1
-0.455450 -1.773859 -0.490721 24 24 24
-0.479786 -1.868642 -0.445403 22 22 22
-0.175831 -0.684817 0.037054 10 10 10
-0.502401 -1.956721 -0.392685 13 13 13
-0.532522 -2.074035 -0.339150 18 18 18
-0.565255 -2.201522 -0.279081 12 12 12
-0.601521 -2.342771 -0.211614 1 1 1
-0.168381 -0.655799 -0.035484 11 11 11
-0.850529 -3.312592 0.789578 1 1 1
-0.161624 -0.629483 -0.011344 22 22 22
-0.893603 -3.480356 0.962807 1 1 1
-0.466835 -1.766900 -0.489686 23 23 23
-0.184404 -0.697940 0.012601 15 15 15
-0.492819 -1.865247 -0.445403 21 21 21
-0.517052 -1.956962 -0.393448 16 16 16
-0.545979 -2.066447 -0.338524 19 19 19
-0.583146 -2.207119 -0.280299 19 19 19
-0.613282 -2.321178 -0.210045 1 1 1
-0.173465 -0.656539 -0.035588 11 11 11
-0.870150 -3.293385 0.786429 1 1 1
-0.169079 -0.639940 -0.011553 21 21 21
-0.920840 -3.485239 0.965913 1 1 1
-0.469303 -1.776239 -0.492274 10 10 10
-0.151712 -0.574206 0.010367 21 21 21
-0.490828 -1.857710 -0.443603 17 17 17
-0.516550 -1.955064 -0.393067 20 20 20
-0.542951 -2.054988 -0.336647 19 19 19
-0.582639 -2.205199 -0.280056 18 18 18
-0.611246 -2.313473 -0.209348 4 4 4
-0.159180 -0.602471 -0.032658 13 13 13
-0.871145 -3.297153 0.787329 1 1 1
-0.172144 -0.651540 -0.011763 21 21 21
-0.916892 -3.470297 0.961772 1 1 1
-0.480172 -1.767327 -0.490721 11 11 11
-0.501231 -1.844836 -0.441354 15 15 15
-0.185376 -0.682295 0.037054 10 10 10
-0.532245 -1.958988 -0.394593 21 21 21
-0.194326 -0.715240 0.064844 9 9 9
-0.558320 -2.054960 -0.337273 19 19 19
-0.590733 -2.174259 -0.276643 16 16 16
-0.627904 -2.311072 -0.209522 7 7 7
-0.165476 -0.609055 -0.033076 12 12 12
-0.888522 -3.270305 0.782380 1 1 1
-0.175116 -0.644533 -0.011658 21 21 21
-0.950214 -3.497368 0.971089 1 1 1
-0.480172 -1.767327 -0.490721 18 18 18
-0.173543 -0.638744 0.011553 18 18 18
-0.505318 -1.859880 -0.444953 11 11 11
-0.529157 -1.947621 -0.392303 27 27 27
-0.559874 -2.060679 -0.338211 20 20 20
-0.588651 -2.166597 -0.275668 19 19 19
-0.627382 -2.309149 -0.209348 11 11 11
-0.671855 -2.472839 -0.134294 1 1 1
-0.883924 -3.253380 0.778331 1 1 1
-0.166203 -0.611727 -0.011065 23 23 23
-0.944136 -3.474997 0.964877 1 1 1
-0.490420 -1.756489 -0.488650 18 18 18
-0.169394 -0.606700 0.010995 20 20 20
-0.515670 -1.846922 -0.442704 14 14 14
-0.541685 -1.940097 -0.391540 27 27 27
-0.575309 -2.060525 -0.338837 22 22 22
-0.604830 -2.166258 -0.276156 21 21 21
-0.638665 -2.287442 -0.207779 12 12 12
-0.684269 -2.450775 -0.133352 2 2 2
-0.906615 -3.247130 0.778331 1 1 1
-0.176922 -0.633664 -0.011484 22 22 22
-0.970451 -3.475764 0.966948 1 1 1
-0.493538 -1.767653 -0.491756 12 12 12
-0.168856 -0.604774 0.010960 20 20 20
-0.517242 -1.852553 -0.444053 21 21 21
-0.542741 -1.943879 -0.392303 23 23 23
-0.571591 -2.047207 -0.336647 19 19 19
-0.607499 -2.175818 -0.277375 22 22 22
-0.637594 -2.283604 -0.207431 13 13 13
-0.683732 -2.448851 -0.133247 4 4 4
-0.907139 -3.249007 0.778781 1 1 1
-0.169394 -0.606700 -0.010995 23 23 23
-0.970451 -3.475764 0.966948 1 1 1
-0.505333 -1.762307 -0.491239 8 8 8
-0.175830 -0.613192 0.011135 19 19 19
-0.525866 -1.833911 -0.440454 24 24 24
-0.555216 -1.936268 -0.391540 23 23 23
-0.585324 -2.041268 -0.336334 20 20 20
-0.622127 -2.169616 -0.277131 19 19 19
-0.656816 -2.290588 -0.208477 15 15 15
-0.700811 -2.444018 -0.133247 7 7 7
-0.934096 -3.257580 0.782380 2 2 2
-0.182444 -0.636258 -0.011553 21 21 21
-0.996822 -3.476332 0.969019 1 1 1
-0.505333 -1.762307 -0.491239 7 7 7
-0.169216 -0.590125 0.010716 20 20 20
-0.524791 -1.830165 -0.439554 24 24 24
-0.186075 -0.648922 0.035379 11 11 11
-0.556298 -1.940043 -0.392303 19 19 19
-0.585324 -2.041268 -0.336334 20 20 20
-0.618297 -2.156258 -0.275425 15 15 15
-0.659562 -2.300164 -0.209348 15 15 15
-0.179661 -0.626551 0.126697 17 17 17
-0.699710 -2.440178 -0.133038 11 11 11
-0.927650 -3.235101 0.776981 3 3 3
-0.752375 -2.623845 -0.047645 1 1 1
-1.001082 -3.491188 0.973160 1 1 1
-0.515137 -1.751413 -0.489168 7 7 7
-0.178871 -0.608144 0.011065 19 19 19
-0.538886 -1.832159 -0.440904 25 25 25
-0.169072 -0.574829 0.031402 13 13 13
-0.565059 -1.921144 -0.389250 10 10 10
-0.600320 -2.041027 -0.336960 20 20 20
-0.634080 -2.155809 -0.275912 16 16 16
-0.673516 -2.289887 -0.208825 15 15 15
-0.183921 -0.625313 0.126697 17 17 17
-0.713485 -2.425779 -0.132515 11 11 11
-0.951299 -3.234321 0.778331 5 5 5
-0.763447 -2.595642 -0.047226 1 1 1
-1.019371 -3.465760 0.967983 1 1 1
-0.511321 -1.738440 -0.485545 10 10 10
-0.170971 -0.581286 0.010576 21 21 21
-0.540536 -1.837767 -0.442254 26 26 26
-0.178090 -0.605487 0.033076 12 12 12
-0.567829 -1.930561 -0.391158 15 15 15
-0.600877 -2.042922 -0.337273 19 19 19
-0.632960 -2.152000 -0.275425 16 16 16
-0.229091 -0.778888 0.128589 8 8 8
-0.670705 -2.280330 -0.207954 12 12 12
-0.190569 -0.647915 0.131277 15 15 15
-0.716303 -2.435359 -0.133038 9 9 9
-0.951299 -3.234321 0.778331 5 5 5
-0.186771 -0.635002 -0.011553 21 21 21
-1.031364 -3.506533 0.979371 1 1 1
-0.522887 -1.732978 -0.485027 10 10 10
-0.185423 -0.614538 0.011204 19 19 19
-0.555041 -1.839546 -0.443603 25 25 25
-0.175389 -0.581283 0.031820 13 13 13
-0.581860 -1.928429 -0.391540 18 18 18
-0.613413 -2.033004 -0.336334 20 20 20
-0.649688 -2.153230 -0.276156 12 12 12
-0.201428 -0.667582 0.110443 13 13 13
-0.689486 -2.285130 -0.208825 7 7 7
-0.188282 -0.624014 0.126697 17 17 17
-0.978359 -3.242526 0.781930 5 5 5
-0.191199 -0.633682 -0.011553 21 21 21
-0.525119 -1.740376 -0.487097 10 10 10
-0.548286 -1.817158 -0.438205 21 21 21
-0.183466 -0.608053 0.033286 12 12 12
-0.580726 -1.924670 -0.390777 9 9 9
-0.214098 -0.709573 0.064844 9 9 9
-0.609989 -2.021657 -0.334457 11 11 11
-0.651982 -2.160832 -0.277131 4 4 4
-0.205993 -0.682711 0.112946 12 12 12
-0.188282 -0.624014 0.126697 17 17 17
-0.745403 -2.470454 -0.135236 1 1 1
-0.978922 -3.244392 0.782380 6 6 6
-0.187733 -0.622196 -0.011344 22 22 22
-0.538131 -1.738420 -0.487615 6 6 6
-0.563580 -1.820634 -0.440004 3 3 3
-0.219170 -0.708023 0.064844 9 9 9
-0.663906 -2.144733 -0.275668 1 1 1
-0.210873 -0.681219 0.112946 12 12 12
-0.192743 -0.622651 0.126697 17 17 17
-1.000960 -3.233581 0.781480 5 5 5
-0.540416 -1.745801 -0.489686 1 1 1
-0.572224 -1.848558 -0.446753 1 1 1
-0.209074 -0.675410 0.037054 10 10 10
-0.628529 -2.030449 -0.336647 1 1 1
-0.685625 -2.214897 -0.284687 1 1 1
-0.202695 -0.654801 0.108566 13 13 13
-0.192743 -0.622651 0.126697 17 17 17
-0.996927 -3.220549 0.778331 2 2 2
-0.545865 -1.721826 -0.483992 0 0 0
-0.330382 -1.042127 -0.252395 1 1 1
-0.183488 -0.578778 0.031820 13 13 13
-0.213117 -0.672236 0.111694 12 12 12
-0.196976 -0.621324 0.126697 17 17 17
-0.286802 -0.904663 -0.219102 1 1 1
-0.213667 -0.673971 0.037054 10 10 10
-0.283005 -0.892686 -0.182032 2 2 2
-0.223984 -0.706514 0.064844 9 9 9
-0.209535 -0.660938 0.109817 13 13 13
-0.219703 -0.693010 -0.038101 10 10 10
-0.249998 -0.769872 -0.216890 2 2 2
-0.218367 -0.672463 0.037054 10 10 10
-0.258913 -0.797325 -0.162951 5 5 5
-0.228911 -0.704933 0.064844 9 9 9
-0.235497 -0.725217 -0.120767 12 12 12
-0.225620 -0.694799 -0.089696 11 11 11
-0.226346 -0.697035 0.116074 11 11 11
-0.212296 -0.653769 -0.060137 16 16 16
-0.201309 -0.619934 0.126697 17 17 17
-0.224535 -0.691459 -0.038101 10 10 10
-0.213075 -0.656166 -0.012042 20 20 20
-0.206442 -0.635742 0.179103 8 8 8
-0.247612 -0.762523 -0.214820 3 3 3
-0.236535 -0.728413 -0.176812 5 5 5
-0.237084 -0.730103 -0.149213 8 8 8
-0.218415 -0.672611 -0.112007 15 15 15
-0.223168 -0.687247 -0.088721 12 12 12
-0.216584 -0.666974 0.111068 13 13 13
-0.211066 -0.649979 -0.059789 16 16 16
-0.211011 -0.649811 0.132803 15 15 15
-0.204796 -0.630672 -0.034751 12 12 12
-0.220486 -0.678989 -0.012461 18 18 18
-0.198089 -0.610018 0.171856 8 8 8
-0.250491 -0.753443 -0.212749 3 3 3
-0.236696 -0.711950 -0.173212 6 6 6
-0.238459 -0.717252 -0.146923 8 8 8
-0.233826 -0.703318 0.064844 9 9 9
-0.228091 -0.686066 -0.114510 14 14 14
-0.220445 -0.663068 -0.085796 12 12 12
-0.239931 -0.721681 0.120455 10 10 10
-0.214341 -0.644708 -0.059440 16 16 16
-0.205632 -0.618514 0.126697 17 17 17
-0.219276 -0.659551 -0.036426 11 11 11
-0.218912 -0.658458 -0.012112 19 19 19
-0.208438 -0.626952 0.177032 8 8 8
-0.238911 -0.718612 -0.202914 3 3 3
-0.239770 -0.721196 -0.175462 5 5 5
-0.226072 -0.679992 -0.139291 9 9 9
-0.228714 -0.687940 -0.114823 14 14 14
-0.219819 -0.661184 -0.085552 13 13 13
-0.213712 -0.642818 -0.059266 17 17 17
-0.205632 -0.618514 0.126697 17 17 17
-0.216755 -0.651970 -0.036007 11 11 11
-0.213949 -0.643529 0.156566 12 12 12
-0.220805 -0.664151 -0.012217 19 19 19
-0.210876 -0.634285 0.179103 8 8 8
-0.245041 -0.720627 -0.203949 3 3 3
-0.252202 -0.741687 -0.180861 5 5 5
-0.237015 -0.697025 -0.143107 9 9 9
-0.230211 -0.677016 -0.113259 15 15 15
-0.228148 -0.670949 -0.087015 12 12 12
-0.216800 -0.637575 -0.058917 17 17 17
-0.209838 -0.617100 0.126697 17 17 17
-0.218616 -0.642916 -0.035588 11 11 11
-0.205777 -0.605158 0.147568 13 13 13
-0.220170 -0.647486 -0.011937 20 20 20
-0.216432 -0.636493 0.180138 8 8 8
-0.246285 -0.724285 -0.204985 3 3 3
-0.244046 -0.717702 -0.175012 5 5 5
-0.195468 -0.574842 0.031820 13 13 13
-0.233223 -0.685873 -0.140817 9 9 9
-0.234027 -0.688238 -0.115136 14 14 14
-0.226870 -0.667190 -0.086527 12 12 12
-0.216159 -0.635689 -0.058743 17 17 17
-0.209838 -0.617100 0.126697 17 17 17
-0.219902 -0.646698 -0.035798 11 11 11
-0.208286 -0.612538 0.149368 13 13 13
-0.227252 -0.668312 -0.012321 38 38 38
-0.207725 -0.610887 0.172891 8 8 8
-0.253746 -0.729891 -0.207055 3 3 3
-0.249566 -0.717865 -0.175462 5 5 5
-0.240465 -0.691687 -0.142344 9 9 9
-0.238058 -0.684763 -0.114823 14 14 14
-0.232058 -0.667506 -0.086771 12 12 12
-0.915257 -2.632699 0.441458 1 1 1
-0.223098 -0.641731 -0.059440 16 16 16
-0.214033 -0.615657 0.126697 17 17 17
-0.229545 -0.660278 -0.036635 10 10 10
-0.208611 -0.600061 0.146668 13 13 13
-0.227199 -0.653528 -0.012077 20 20 20
-0.210610 -0.605810 0.171856 8 8 8
-0.252478 -0.726242 -0.206020 3 3 3
-0.250845 -0.721546 -0.176362 5 5 5
-0.240465 -0.691687 -0.142344 9 9 9
-0.237409 -0.682897 -0.114510 14 14 14
-0.232058 -0.667506 -0.086771 12 12 12
-0.880230 -2.531943 0.424563 1 1 1
-0.225715 -0.649258 -0.060137 16 16 16
-0.214033 -0.615657 0.126697 17 17 17
-0.196753 -0.565952 -0.031402 13 13 13
-0.209891 -0.603743 0.147568 13 13 13
-0.226542 -0.651639 -0.012042 20 20 20
-0.210610 -0.605810 0.171856 8 8 8
-0.254953 -0.717180 -0.203949 3 3 3
-0.254571 -0.716105 -0.175462 5 5 5
-0.240027 -0.675193 -0.139291 9 9 9
-0.242171 -0.681223 -0.114510 14 14 14
-0.240702 -0.677092 -0.088233 12 12 12
-0.899208 -2.529459 0.425189 1 1 1
-0.228907 -0.643912 -0.059789 16 16 16
-0.218326 -0.614148 0.126697 17 17 17
-0.212143 -0.596754 0.146218 13 13 13
-0.224388 -0.631200 -0.011693 21 21 21
-0.213540 -0.600684 0.170821 8 8 8
-0.254953 -0.717180 -0.203949 3 3 3
-0.263057 -0.739975 -0.181311 5 5 5
-0.236825 -0.666187 0.037054 10 10 10
-0.258440 -0.726988 -0.149976 8 8 8
-0.228937 -0.643998 -0.108253 16 16 16
-0.257990 -0.725723 -0.094571 10 10 10
-0.897223 -2.523875 0.424250 2 2 2
-0.219564 -0.617630 -0.057348 18 18 18
-0.210435 -0.591950 0.122118 18 18 18
-0.234149 -0.658659 -0.036635 10 10 10
-0.216712 -0.609608 0.149368 26 26 26
-0.232426 -0.653810 -0.012112 19 19 19
-0.209657 -0.589762 0.167715 9 9 9
-0.276316 -0.760823 -0.216890 2 2 2
-0.257444 -0.708861 -0.174112 6 6 6
-0.220901 -0.608241 0.033914 12 12 12
-0.688279 -1.895148 -0.391922 1 1 1
-0.719502 -1.981118 -0.333831 1 1 1
-0.760311 -2.093484 -0.273475 1 1 1
-0.916404 -2.523280 0.425189 3 3 3
-0.811395 -2.234142 -0.207954 1 1 1
-0.222501 -0.612648 0.126697 17 17 17
-0.860422 -2.369135 -0.132096 1 1 1
-0.222187 -0.611782 0.150267 26 26 26
-0.231410 -0.637176 -0.011833 20 20 20
-0.220261 -0.606480 0.172891 8 8 8
-0.619237 -1.705043 -0.486062 4 4 4
-0.648599 -1.785890 -0.438655 5 5 5
-0.207265 -0.570695 0.031820 13 13 13
-0.678897 -1.869313 -0.386579 3 3 3
-0.720176 -1.982975 -0.334144 3 3 3
-0.762344 -2.099081 -0.274206 2 2 2
-0.919102 -2.530707 0.426440 3 3 3
-0.803914 -2.213542 -0.206036 2 2 2
-0.214459 -0.590504 0.122118 18 18 18
-0.854286 -2.352239 -0.131154 2 2 2
-0.212874 -0.586138 0.143969 42 42 42
-0.917447 -2.526150 -0.046912 1 1 1
-0.221580 -0.610111 0.173926 17 17 17
-0.633065 -1.704080 -0.487097 13 13 13
-0.663709 -1.786567 -0.440004 12 12 12
-0.211443 -0.569160 0.031820 13 13 13
-0.693949 -1.867967 -0.387342 9 9 9
-0.732629 -1.972087 -0.333205 8 8 8
-0.773563 -2.082272 -0.272744 7 7 7
-0.934876 -2.516495 0.425189 3 3 3
-0.820118 -2.207589 -0.206036 4 4 4
-0.226986 -0.611000 0.126697 17 17 17
-0.870810 -2.344042 -0.131049 4 4 4
-0.219200 -0.590042 0.145318 42 42 42
-0.929672 -2.502486 -0.046598 1 1 1
-0.226719 -0.610282 0.174444 25 25 25
-0.629028 -1.693215 -0.483992 21 21 21
-0.660994 -1.779260 -0.438205 16 16 16
-0.246219 -0.662772 0.037054 10 10 10
-0.692581 -1.864286 -0.386579 13 13 13
-0.734693 -1.977643 -0.334144 14 14 14
-0.774945 -2.085993 -0.273231 14 14 14
-0.938316 -2.525753 0.426753 3 3 3
-0.816649 -2.198251 -0.205165 10 10 10
-0.226986 -0.611000 0.126697 17 17 17
-0.870115 -2.342170 -0.130945 9 9 9
-0.218522 -0.588215 0.144868 42 42 42
-0.218646 -0.588551 0.168232 36 36 36
-0.638092 -1.681557 -0.481921 23 23 23
-0.677548 -1.785534 -0.440904 22 22 22
-0.706972 -1.863077 -0.387342 20 20 20
-0.744977 -1.963231 -0.332580 20 20 20
-0.790898 -2.084244 -0.273719 22 22 22
-0.956627 -2.520988 0.427066 3 3 3
-0.832682 -2.194359 -0.205339 13 13 13
-0.231246 -0.609401 0.126697 17 17 17
-0.889988 -2.345375 -0.131468 12 12 12
-0.228845 -0.603073 0.148918 40 40 40
-0.225491 -0.594234 0.170303 35 35 35
-0.637407 -1.679751 -0.481403 26 26 26
-0.672017 -1.770958 -0.437305 24 24 24
-0.225331 -0.593813 0.033286 12 12 12
-0.709759 -1.870419 -0.388869 23 23 23
-0.742875 -1.957690 -0.331641 23 23 23
-0.978234 -2.577930 0.338553 1 1 1
-0.788785 -2.078677 -0.272987 19 19 19
-0.965037 -2.543150 0.430821 3 3 3
-0.834096 -2.198085 -0.205688 14 14 14
-0.231246 -0.609401 0.126697 17 17 17
-0.881484 -2.322967 -0.130212 11 11 11
-0.230919 -0.608539 0.150267 39 39 39
-0.225491 -0.594234 0.170303 35 35 35
-0.651910 -1.682466 -0.483474 24 24 24
-0.682252 -1.760773 -0.435955 24 24 24
-0.228028 -0.588501 0.033076 12 12 12
-0.721381 -1.861757 -0.388105 26 26 26
-0.757238 -1.954298 -0.331954 21 21 21
-0.997642 -2.574740 0.339041 1 1 1
-0.800409 -2.065715 -0.272012 18 18 18
-0.986336 -2.545561 0.432385 3 3 3
-0.848701 -2.190350 -0.205513 14 14 14
-0.235495 -0.607771 0.126697 17 17 17
-0.899123 -2.320481 -0.130421 10 10 10
-0.226713 -0.585107 0.144868 56 56 56
-0.232426 -0.599851 0.172373 26 26 26
-0.653306 -1.686068 -0.484509 26 26 26
-0.687180 -1.773492 -0.439104 24 24 24
-0.215039 -0.554979 0.031192 14 14 14
-0.714287 -1.843451 -0.384289 25 25 25
-0.760092 -1.961666 -0.333205 22 22 22
-1.000511 -2.582144 0.340015 1 1 1
-0.800409 -2.065715 -0.272012 16 16 16
-0.983481 -2.538193 0.431133 4 4 4
-0.849421 -2.192208 -0.205688 15 15 15
-0.235495 -0.607771 0.126697 17 17 17
-0.901288 -2.326068 -0.130735 5 5 5
-0.223193 -0.576022 0.142619 43 43 43
-0.235218 -0.607057 0.174444 25 25 25
-0.659376 -1.667095 -0.480368 24 24 24
-0.228737 -0.578313 0.010855 20 20 20
-0.698111 -1.765027 -0.438205 24 24 24
-0.260046 -0.657470 0.037054 10 10 10
-0.728584 -1.842071 -0.385053 25 25 25
-1.078683 -2.727223 0.256587 1 1 1
-0.770863 -1.948964 -0.331954 22 22 22
-1.013402 -2.562175 0.338309 2 2 2
-0.814810 -2.060077 -0.272012 16 16 16
-1.000450 -2.529429 0.430821 4 4 4
-0.856644 -2.165845 -0.203770 14 14 14
-0.917505 -2.319719 -0.130735 1 1 1
-0.230076 -0.581698 0.144419 42 42 42
-0.232345 -0.587435 0.169268 27 27 27
-0.658666 -1.665298 -0.479851 21 21 21
-0.230943 -0.583891 0.010960 20 20 20
-0.696678 -1.761403 -0.437305 23 23 23
-0.730028 -1.845722 -0.385816 26 26 26
-1.036913 -2.621617 0.246651 1 1 1
-0.767956 -1.941617 -0.330702 22 22 22
-1.017053 -2.571404 0.339528 5 5 5
-0.813350 -2.056385 -0.271525 16 16 16
-1.004810 -2.540450 0.432698 4 4 4
-0.856644 -2.165845 -0.203770 15 15 15
-1.010919 -2.555896 0.534265 1 1 1
-0.954969 -2.414439 -0.136073 1 1 1
-0.236526 -0.598007 0.148468 54 54 54
-0.249330 -0.630380 -0.011833 20 20 20
-0.230213 -0.582046 0.167715 36 36 36
-0.671431 -1.664360 -0.480886 22 22 22
-0.240149 -0.595287 0.011204 19 19 19
-0.708651 -1.756620 -0.437305 24 24 24
-0.743309 -1.842531 -0.386197 28 28 28
-1.051752 -2.607107 0.245954 2 2 2
-0.782633 -1.940008 -0.331328 20 20 20
-1.036760 -2.569945 0.340259 5 5 5
-0.828814 -2.054483 -0.272012 19 19 19
-1.025035 -2.540879 0.433949 4 4 4
-0.876584 -2.172897 -0.204990 15 15 15
-0.996709 -2.470666 0.517856 1 1 1
-0.239862 -0.594576 0.148018 54 54 54
-0.250623 -0.621250 -0.011693 21 21 21
-0.236338 -0.585840 0.169268 54 54 54
-0.675768 -1.675109 -0.483992 23 23 23
-0.228179 -0.565616 0.010646 21 21 21
-0.705735 -1.749391 -0.435505 23 23 23
-0.745512 -1.847993 -0.387342 26 26 26
-1.051752 -2.607107 0.245954 2 2 2
-0.782633 -1.940008 -0.331328 22 22 22
-1.038988 -2.575468 0.340990 5 5 5
-0.827329 -2.050801 -0.271525 17 17 17
-1.029469 -2.551871 0.435826 4 4 4
-0.874348 -2.167354 -0.204467 8 8 8
-1.010665 -2.505259 0.525106 1 1 1
-0.235488 -0.583733 0.145318 56 56 56
-0.246134 -0.610123 -0.011484 22 22 22
-0.239952 -0.594798 0.171856 17 17 17
-0.688916 -1.673923 -0.485027 10 10 10
-0.238972 -0.580652 0.010960 20 20 20
-0.719414 -1.748026 -0.436405 22 22 22
-0.752418 -1.828219 -0.384289 25 25 25
-1.078268 -2.619968 0.247871 2 2 2
-0.797661 -1.938151 -0.331954 21 21 21
-1.066009 -2.590180 0.343915 1 1 1
-0.840115 -2.041304 -0.271037 14 14 14
-1.045755 -2.540968 0.435201 4 4 4
-0.892491 -2.168567 -0.205165 1 1 1
-0.845816 -2.055158 0.431992 1 1 1
-0.239557 -0.582075 0.145318 42 42 42
-0.248865 -0.604691 -0.011414 22 22 22
-0.244098 -0.593108 0.171856 35 35 35
-0.680829 -1.654272 -0.479333 11 11 11
-0.236689 -0.575104 0.010855 20 20 20
-0.723864 -1.758838 -0.439104 9 9 9
-0.231079 -0.561475 0.031820 13 13 13
-0.747935 -1.817326 -0.382000 12 12 12
-0.944812 -2.295696 0.217192 1 1 1
-0.802172 -1.949111 -0.333831 11 11 11
-1.067520 -2.593851 0.344403 1 1 1
-0.843892 -2.050483 -0.272256 8 8 8
-0.901590 -2.190677 -0.207256 1 1 1
-0.850299 -2.066051 0.434281 1 1 1
-0.266045 -0.646435 -0.036635 10 10 10
-0.241041 -0.585679 0.146218 27 27 27
-0.249627 -0.606541 -0.011449 22 22 22
-0.244098 -0.593108 0.171856 35 35 35
-0.690578 -1.646037 -0.478298 20 20 20
-0.246787 -0.588232 0.011135 19 19 19
-0.732049 -1.744886 -0.436855 11 11 11
-0.234896 -0.559889 0.031820 13 13 13
-0.764845 -1.823055 -0.384289 8 8 8
-0.860212 -2.050370 0.194532 7 7 7
-0.804721 -1.918104 -0.329451 7 7 7
-1.061343 -2.529779 0.336847 1 1 1
-0.854758 -2.037369 -0.271281 6 6 6
-0.853631 -2.034684 0.349475 1 1 1
-0.847633 -2.020387 0.425886 1 1 1
-0.262712 -0.626191 -0.035588 11 11 11
-0.247283 -0.589416 0.147568 13 13 13
-0.252202 -0.601139 -0.011379 22 22 22
-0.247382 -0.589652 0.171338 26 26 26
-0.695063 -1.656725 -0.481403 23 23 23
-0.240598 -0.573480 0.010855 20 20 20
-0.732049 -1.744886 -0.436855 21 21 21
-0.768642 -1.832107 -0.386197 15 15 15
-0.854046 -2.035672 0.193137 15 15 15
-0.810071 -1.930855 -0.331641 16 16 16
-0.890085 -2.121573 0.282493 6 6 6
-0.859366 -2.048352 -0.272744 15 15 15
-0.843696 -2.011003 0.345407 1 1 1
-0.829405 -1.976938 0.416727 1 1 1
-0.255758 -0.609616 -0.034646 12 12 12
-0.251807 -0.600197 0.150267 13 13 13
-0.260712 -0.621423 -0.011763 21 21 21
-0.244393 -0.582526 0.169268 9 9 9
-0.707083 -1.653732 -0.481921 21 21 21
-0.244496 -0.571829 0.010855 20 20 20
-0.740845 -1.732695 -0.435055 24 24 24
-0.317222 -0.741921 0.042287 7 7 7
-0.783411 -1.832248 -0.387342 23 23 23
-0.860833 -2.013324 0.191568 9 9 9
-0.825525 -1.930745 -0.332580 23 23 23
-0.884214 -2.068009 0.276156 1 1 1
-0.869386 -2.033329 -0.271525 6 6 6
-0.863578 -2.019744 0.347910 1 1 1
-0.921569 -2.155374 0.455652 1 1 1
-0.260687 -0.609697 -0.034751 12 12 12
-1.058021 -2.474511 0.621315 1 1 1
-0.253930 -0.593893 -0.011274 22 22 22
-1.045814 -2.445960 0.712788 1 1 1
-0.706323 -1.651956 -0.481403 17 17 17
-0.740079 -1.730903 -0.434605 22 22 22
-0.277961 -0.650099 0.037054 10 10 10
-0.777236 -1.817807 -0.384289 25 25 25
-0.822418 -1.923480 -0.331328 20 20 20
-0.859241 -2.009600 0.268356 1 1 1
-0.867045 -2.027853 -0.270794 1 1 1
-0.856589 -2.003398 0.345094 1 1 1
-0.243602 -0.569739 -0.054211 19 19 19
-1.062042 -2.483915 0.525106 1 1 1
-0.255191 -0.596842 -0.034018 12 12 12
-1.059554 -2.478094 0.622215 2 2 2
-0.255502 -0.597570 -0.011344 22 22 22
-1.048093 -2.451289 0.714341 3 3 3
-0.715810 -1.641547 -0.479851 16 16 16
-0.755561 -1.732708 -0.436405 17 17 17
-0.322522 -0.739632 0.042287 7 7 7
-0.785516 -1.801401 -0.382000 22 22 22
-0.850530 -1.950497 0.186165 2 2 2
-0.835372 -1.915735 -0.331015 19 19 19
-0.876773 -2.010679 0.269331 1 1 1
-0.891055 -2.043432 -0.273719 1 1 1
-0.863007 -1.979110 0.341966 1 1 1
-0.268379 -0.615466 -0.058743 17 17 17
-0.877329 -2.011954 0.426649 1 1 1
-0.266640 -0.611478 -0.034960 11 11 11
-1.078038 -2.472235 0.622665 3 3 3
-0.259771 -0.595727 -0.011344 22 22 22
-1.064062 -2.440185 0.713305 3 3 3
-0.712721 -1.634464 -0.477780 17 17 17
-0.755561 -1.732708 -0.436405 17 17 17
-0.311346 -0.714001 0.040822 8 8 8
-0.785516 -1.801401 -0.382000 13 13 13
-0.830634 -1.904870 -0.329138 13 13 13
-0.883121 -2.025236 0.271281 1 1 1
-0.864586 -1.982731 0.342591 1 1 1
-0.268379 -0.615466 -0.058743 17 17 17
-0.860065 -1.972363 0.418253 1 1 1
-0.266640 -0.611478 -0.034960 11 11 11
-1.081933 -2.481167 0.624914 4 4 4
-1.064835 -2.441956 0.713823 3 3 3
-0.724114 -1.629448 -0.477780 21 21 21
-0.762100 -1.714925 -0.433256 15 15 15
-0.316323 -0.711810 0.040822 8 8 8
-0.811626 -1.826373 -0.388487 14 14 14
-0.869790 -1.957256 0.187385 47 47 47
-0.841506 -1.893610 -0.328200 8 8 8
-0.872247 -1.962786 0.263725 1 1 1
-0.295855 -0.665751 -0.089452 11 11 11
-0.872791 -1.964011 0.340401 1 1 1
-0.274287 -0.617219 -0.059092 17 17 17
-0.879395 -1.978869 0.420925 1 1 1
-0.256303 -0.576749 -0.033076 12 12 12
-1.100020 -2.475334 0.625364 1 1 1
-1.040277 -2.340897 0.686388 1 1 1
-0.729606 -1.641806 -0.481403 24 24 24
-0.764474 -1.720268 -0.434605 19 19 19
-0.368232 -0.828620 0.047521 4 4 4
-0.806842 -1.815608 -0.386197 19 19 19
-0.868981 -1.955436 0.187211 52 52 52
-0.846319 -1.904441 -0.330077 1 1 1
-0.867410 -1.951902 0.262263 2 2 2
-0.280538 -0.631284 -0.084821 13 13 13
-0.875198 -1.969426 0.341340 1 1 1
-0.275096 -0.619039 -0.059266 17 17 17
-0.880989 -1.982457 0.421688 1 1 1
-0.256303 -0.576749 -0.033076 12 12 12
-1.050954 -2.364923 0.597470 1 1 1
-1.075998 -2.421279 -0.046249 1 1 1
-1.024586 -2.305589 0.676035 1 1 1
-0.740764 -1.636801 -0.481403 25 25 25
-0.776166 -1.715024 -0.434605 24 24 24
-1.238527 -2.736664 0.157427 1 1 1
-0.817563 -1.806497 -0.385434 24 24 24
-0.873234 -1.929509 0.185293 49 49 49
-0.864964 -1.911233 -0.332267 1 1 1
-0.909323 -2.009250 0.270794 1 1 1
-0.267641 -0.591381 -0.079703 14 14 14
-0.873923 -1.931030 0.335708 1 1 1
-0.274375 -0.606261 -0.058220 17 17 17
-0.893653 -1.974626 0.421306 1 1 1
-0.288221 -0.636857 -0.036635 10 10 10
-1.033281 -2.283149 0.578574 1 1 1
-1.092454 -2.413898 -0.046249 1 1 1
-1.011582 -2.235202 0.657400 1 1 1
-0.733596 -1.620961 -0.476745 23 23 23
-0.777773 -1.718575 -0.435505 23 23 23
-0.813516 -1.797554 -0.383526 25 25 25
-0.867484 -1.916803 0.184073 51 51 51
-0.277462 -0.613084 -0.082627 13 13 13
-0.873108 -1.929230 0.335395 1 1 1
-0.266981 -0.589925 -0.056651 18 18 18
-0.896082 -1.979992 0.422451 1 1 1
-1.036773 -2.290864 -0.131782 1 1 1
-1.030067 -2.276047 0.576775 1 1 1
-1.082560 -2.392037 -0.045830 1 1 1
-1.019547 -2.252802 0.662577 1 1 1
-0.746229 -1.619440 -0.477780 22 22 22
-0.791084 -1.716781 -0.436405 25 25 25
-0.823268 -1.786626 -0.382381 22 22 22
-0.873841 -1.896377 0.182678 51 51 51
-0.286613 -0.621998 -0.084090 13 13 13
-0.878780 -1.907096 0.332580 1 1 1
-0.260985 -0.566380 -0.054559 19 19 19
-0.904608 -1.963148 0.420161 1 1 1
-1.042312 -2.261987 -0.130526 3 3 3
-1.047166 -2.272523 0.577674 1 1 1
-1.108859 -2.406406 -0.046249 1 1 1
-1.039708 -2.256337 0.665683 1 1 1
-0.748655 -1.624703 -0.479333 25 25 25
-0.784559 -1.702622 -0.432806 25 25 25
-1.131748 -2.456079 0.141726 1 1 1
-0.823268 -1.786626 -0.382381 6 6 6
-0.876342 -1.901806 0.183201 49 49 49
-0.277770 -0.602807 -0.105124 17 17 17
-0.287444 -0.623801 -0.084334 13 13 13
-0.880433 -1.910684 0.333205 3 3 3
-0.270991 -0.588094 -0.056651 18 18 18
-0.882425 -1.915006 0.409858 1 1 1
-1.033953 -2.243848 -0.129479 5 5 5
-0.939514 -2.038899 0.518287 1 1 1
-1.105512 -2.399142 -0.046109 1 1 1
-1.129450 -2.451091 0.723140 1 1 1
-0.764903 -1.629930 -0.482439 23 23 23
-0.797254 -1.698868 -0.433256 24 24 24
-1.131897 -2.411957 0.139632 1 1 1
-0.843227 -1.796830 -0.385816 1 1 1
-0.887058 -1.890231 0.182678 54 54 54
-0.276937 -0.590124 -0.103247 18 18 18
-0.278299 -0.593026 -0.080434 14 14 14
-0.900464 -1.918797 0.335708 1 1 1
-0.266625 -0.568151 -0.054908 19 19 19
-0.922462 -1.965672 0.422069 1 1 1
-1.048744 -2.234767 -0.129374 10 10 10
-0.925577 -1.972309 0.502991 1 1 1
-1.118836 -2.384124 -0.045970 1 1 1
-1.154741 -2.460635 0.728317 11 11 11
-0.761620 -1.622935 -0.480368 25 25 25
-0.799738 -1.704160 -0.434605 25 25 25
-1.075896 -2.292625 0.132724 1 1 1
-0.869917 -1.853703 -0.398028 1 1 1
-0.885366 -1.886623 0.182330 51 51 51
-0.298756 -0.636618 -0.111381 15 15 15
-0.906580 -1.931828 0.262019 1 1 1
-0.279142 -0.594823 -0.080678 14 14 14
-0.896268 -1.909855 0.334144 1 1 1
-0.999634 -2.130117 -0.205862 1 1 1
-0.902445 -1.923017 0.412911 1 1 1
-1.048744 -2.234767 -0.129374 13 13 13
-0.924749 -1.970545 0.502541 1 1 1
-1.122234 -2.391365 -0.046109 1 1 1
-1.159665 -2.471128 0.731423 13 13 13
-0.768215 -1.606986 -0.477262 24 24 24
-0.811072 -1.696635 -0.434156 21 21 21
-0.894149 -1.870420 0.108649 1 1 1
-0.894547 -1.871252 0.181458 52 52 52
-0.289672 -0.605949 -0.106375 17 17 17
-0.920380 -1.925291 0.262019 1 1 1
-0.291953 -0.610720 -0.083115 13 13 13
-0.905652 -1.894482 0.332580 1 1 1
-1.001961 -2.095946 -0.203247 3 3 3
-0.922956 -1.930680 0.415964 1 1 1
-1.066432 -2.230809 -0.129584 14 14 14
-0.934624 -1.955087 0.500291 1 1 1
-1.128968 -2.361624 -0.045690 1 1 1
-1.173986 -2.455795 0.729352 3 3 3
-0.766548 -1.603500 -0.476227 24 24 24
-0.811912 -1.698394 -0.434605 9 9 9
-0.906209 -1.895647 0.110115 5 5 5
-0.300596 -0.628800 -0.135474 10 10 10
-0.886813 -1.855074 0.179889 47 47 47
-0.289672 -0.605949 -0.106375 17 17 17
-0.920380 -1.925291 0.262019 1 1 1
-0.286816 -0.599974 -0.081652 14 14 14
-0.905652 -1.894482 0.332580 1 1 1
-1.006258 -2.104934 -0.204119 6 6 6
-0.902634 -1.888170 0.406805 1 1 1
-1.068155 -2.234413 -0.129793 12 12 12
-0.931262 -1.948054 0.498492 1 1 1
-1.142767 -2.390490 -0.046249 1 1 1
-1.174819 -2.457538 0.729870 8 8 8
-0.779135 -1.601719 -0.477262 25 25 25
-0.820897 -1.687570 -0.433256 2 2 2
-0.913849 -1.878658 0.109487 9 9 9
-0.304869 -0.626739 -0.135474 10 10 10
-0.902905 -1.856161 0.180587 51 51 51
-0.279965 -0.575541 -0.101370 18 18 18
-0.933464 -1.918982 0.262019 1 1 1
-0.978617 -2.011807 -0.274694 1 1 1
-0.916798 -1.884721 0.331954 1 1 1
-1.023177 -2.103410 -0.204642 10 10 10
-0.915466 -1.881982 0.406805 1 1 1
-1.076350 -2.212722 -0.128956 11 11 11
-0.939385 -1.931155 0.495792 1 1 1
-1.153764 -2.371867 -0.046039 1 1 1
-1.184759 -2.435586 0.725729 15 15 15
-0.784206 -1.612143 -0.480368 25 25 25
-1.220243 -2.508533 0.048692 1 1 1
-0.822602 -1.691075 -0.434156 1 1 1
-0.908607 -1.867882 0.108859 21 21 21
-0.316892 -0.651455 -0.140817 9 9 9
-0.902034 -1.854370 0.180412 49 49 49
-0.298975 -0.614621 -0.108253 16 16 16
-0.890047 -1.829727 0.249832 1 1 1
-0.971671 -1.997526 -0.272744 1 1 1
-0.920254 -1.891826 0.333205 1 1 1
-1.024048 -2.105202 -0.204816 14 14 14
-0.926630 -1.904933 0.411766 1 1 1
-1.075476 -2.210926 -0.128851 12 12 12
-0.951319 -1.955689 0.502091 1 1 1
-1.164260 -2.393446 -0.046458 1 1 1
-1.185604 -2.437323 0.726246 8 8 8
-0.795441 -1.606629 -0.480368 26 26 26
-1.245711 -2.516081 0.049006 1 1 1
-0.918966 -1.856124 0.108545 42 42 42
-0.307495 -0.621076 -0.134711 10 10 10
-0.914074 -1.846241 0.180238 47 47 47
-0.297999 -0.601898 -0.106375 17 17 17
-0.922176 -1.862607 0.255194 1 1 1
-0.971500 -1.962230 -0.268844 4 4 4
-0.921169 -1.860572 0.328825 1 1 1
-1.036068 -2.092645 -0.204293 15 15 15
-0.941648 -1.901936 0.412529 1 1 1
-1.097088 -2.215893 -0.129584 12 12 12
-0.952844 -1.924550 0.495792 1 1 1
-1.159647 -2.342250 -0.045621 1 1 1
-1.200877 -2.425524 0.725211 11 11 11
-0.789441 -1.594510 -0.476745 19 19 19
-1.246599 -2.517874 0.049041 1 1 1
-0.312139 -0.630456 -0.162415 7 7 7
-0.916308 -1.850754 0.108231 51 51 51
-0.304010 -0.614039 -0.133185 10 10 10
-0.907886 -1.833743 0.179018 44 44 44
-0.299752 -0.605438 -0.107001 17 17 17
-0.901037 -1.819911 0.249345 1 1 1
-0.971500 -1.962230 -0.268844 9 9 9
-0.915910 -1.849950 0.326948 1 1 1
-1.028112 -2.076575 -0.202724 14 14 14
-0.937293 -1.893139 0.410621 1 1 1
-1.094430 -2.210523 -0.129270 13 13 13
-0.937281 -1.893115 0.487694 1 1 1
-1.149000 -2.320745 -0.045202 1 1 1
-1.199162 -2.422062 0.724176 1 1 1
-0.804031 -1.595860 -0.478815 6 6 6
-1.265046 -2.510895 0.049076 1 1 1
-0.318286 -0.631742 -0.163314 7 7 7
-0.923814 -1.833610 0.107603 57 57 57
-0.304756 -0.604888 -0.131658 11 11 11
-0.918872 -1.823801 0.178669 42 42 42
-0.947467 -1.880557 -0.333518 1 1 1
-0.919973 -1.825986 0.251051 1 1 1
-0.991427 -1.967810 -0.270550 14 14 14
-0.935913 -1.857624 0.329451 1 1 1
-1.043480 -2.071126 -0.202899 17 17 17
-0.946953 -1.879537 0.409094 1 1 1
-1.116126 -2.215315 -0.130003 12 12 12
-0.939952 -1.865641 0.482295 1 1 1
-1.161575 -2.305523 -0.045062 1 1 1
-0.978744 -1.942637 0.582860 1 1 1
-0.811854 -1.611388 -0.483474 0 0 0
-1.269545 -2.519824 0.049251 1 1 1
-0.313902 -0.623041 -0.161065 7 7 7
-0.924713 -1.835394 0.107707 61 61 61
-0.322423 -0.639954 -0.139291 9 9 9
-0.918872 -1.823801 0.178669 43 43 43
-0.937690 -1.861152 -0.330077 1 1 1
-0.915507 -1.817122 0.249832 1 1 1
-0.990534 -1.966037 -0.270306 13 13 13
-0.935913 -1.857624 0.329451 1 1 1
-1.043480 -2.071126 -0.202899 16 16 16
-0.938120 -1.862004 0.405278 1 1 1
-1.106240 -2.195694 -0.128851 13 13 13
-0.960119 -1.905669 0.492643 2 2 2
-1.170572 -2.323382 -0.045411 1 1 1
-0.978744 -1.942637 0.582860 1 1 1
-0.848351 -1.655684 -0.498485 0 0 0
-1.295786 -2.528921 0.049600 1 1 1
-0.318136 -0.620890 -0.161065 7 7 7
-0.930809 -1.816614 0.106975 65 65 65
-0.337515 -0.658712 -0.143870 9 9 9
-0.931265 -1.817504 0.178669 43 43 43
-0.956643 -1.867032 -0.332267 5 5 5
-0.922423 -1.800248 0.248370 1 1 1
-0.999367 -1.950416 -0.269088 12 12 12
-0.944932 -1.844178 0.328200 1 1 1
-1.063005 -2.074615 -0.203944 18 18 18
-0.959725 -1.873047 0.409094 1 1 1
-1.125714 -2.197001 -0.129374 12 12 12
-0.974846 -1.902558 0.493543 1 1 1
-1.175417 -2.294004 -0.044992 1 1 1
-0.991945 -1.935930 0.582860 1 1 1
-1.293962 -2.525362 0.049530 1 1 1
-0.315470 -0.615687 -0.159715 7 7 7
-0.929898 -1.814837 0.106870 71 71 71
-0.326772 -0.637745 -0.139291 9 9 9
-0.932174 -1.819278 0.178844 41 41 41
-0.954841 -1.863516 -0.331641 10 10 10
-0.916992 -1.789648 0.246907 1 1 1
-0.993031 -1.938049 -0.267381 12 12 12
-0.937726 -1.830114 0.325697 1 1 1
-1.061188 -2.071068 -0.203596 16 16 16
-0.954353 -1.862564 0.406805 1 1 1
-1.119339 -2.184559 -0.128642 13 13 13
-0.965959 -1.885215 0.489044 1 1 1
-1.180889 -2.304682 -0.045202 1 1 1
-0.958469 -1.870596 0.563190 1 1 1
-0.336746 -0.645782 -0.195150 4 4 4
-1.309226 -2.510719 0.049425 1 1 1
-0.324372 -0.622053 -0.161965 14 14 14
-0.938244 -1.799281 0.106347 68 68 68
-0.322250 -0.617982 -0.135474 10 10 10
-0.942405 -1.807261 0.178321 34 34 34
-0.969978 -1.860139 -0.332267 19 19 19
-0.929775 -1.783040 0.246907 1 1 1
-1.015134 -1.946735 -0.269575 17 17 17
-0.948971 -1.819853 0.325071 1 1 1
-1.070454 -2.052822 -0.202550 18 18 18
-0.970380 -1.860909 0.407950 1 1 1
-1.142330 -2.190660 -0.129479 12 12 12
-0.978524 -1.876527 0.488594 1 1 1
-1.195501 -2.292627 -0.045132 1 1 1
-0.972723 -1.865403 0.563708 1 1 1
-0.323348 -0.620088 -0.187385 4 4 4
-1.314774 -2.521357 0.049635 1 1 1
-0.320768 -0.615141 -0.160165 7 7 7
-0.938244 -1.799281 0.106347 73 73 73
-0.906838 -1.739054 -0.381236 1 1 1
-0.942405 -1.807261 0.178321 38 38 38
-0.959018 -1.839120 -0.328512 23 23 23
-0.931610 -1.786560 0.247395 1 1 1
-1.016052 -1.948495 -0.269819 16 16 16
-0.948058 -1.818102 0.324758 1 1 1
-1.066769 -2.045756 -0.201853 17 17 17
-0.959487 -1.840020 0.403370 1 1 1
-1.137713 -2.181806 -0.128956 12 12 12
-0.976721 -1.873071 0.487694 1 1 1
-1.206596 -2.313904 -0.045551 1 1 1
-0.978082 -1.875680 0.566814 2 2 2
-0.333100 -0.628056 -0.190491 4 4 4
-1.328596 -2.505051 0.049495 1 1 1
-0.328707 -0.619773 -0.161965 7 7 7
-0.950782 -1.792687 0.106347 68 68 68
-0.929995 -1.753494 -0.385816 7 7 7
-0.956866 -1.804158 0.178669 40 40 40
-0.972760 -1.834126 -0.328825 21 21 21
-0.932899 -1.758969 0.244470 1 1 1
-1.035211 -1.951876 -0.271281 14 14 14
-0.954248 -1.799223 0.322568 1 1 1
-1.084759 -2.045299 -0.202550 17 17 17
-0.968630 -1.826339 0.401844 1 1 1
-1.149174 -2.166752 -0.128537 11 11 11
-0.993426 -1.873093 0.489493 1 1 1
-1.214288 -2.289524 -0.045237 1 1 1
-0.998394 -1.882460 0.570955 2 2 2
-0.325859 -0.614402 -0.186350 8 8 8
-1.334218 -2.515650 0.049704 1 1 1
-0.315924 -0.595671 -0.155666 7 7 7
-0.945167 -1.782101 0.105719 76 76 76
-0.929995 -1.753494 -0.385816 12 12 12
-0.956866 -1.804158 0.178669 38 38 38
-0.976462 -1.841106 -0.330077 24 24 24
-0.938479 -1.769491 0.245932 1 1 1
-1.029630 -1.941354 -0.269819 14 14 14
-0.954248 -1.799223 0.322568 1 1 1
-1.090360 -2.055860 -0.203596 16 16 16
-0.968630 -1.826339 0.401844 1 1 1
-1.150109 -2.168516 -0.128642 12 12 12
-0.987035 -1.861042 0.486344 1 1 1
-1.217099 -2.294824 -0.045341 1 1 1
-0.994774 -1.875633 0.568884 2 2 2
-0.335642 -0.622314 -0.189456 8 8 8
-1.346052 -2.495714 0.049495 1 1 1
-0.333026 -0.617463 -0.161965 7 7 7
-0.956637 -1.773701 0.105614 79 79 79
-0.939418 -1.741774 -0.384671 19 19 19
-0.973221 -1.804448 0.179367 40 40 40
-0.982727 -1.822074 -0.327887 23 23 23
-0.939502 -1.741930 0.243007 1 1 1
-1.037504 -1.923636 -0.268356 17 17 17
-0.956471 -1.773393 0.319126 2 2 2
-1.102794 -2.044690 -0.203247 17 17 17
-0.979492 -1.816076 0.401081 1 1 1
-1.170909 -2.170982 -0.129270 11 11 11
-0.998153 -1.850675 0.485444 2 2 2
-1.232141 -2.284511 -0.045306 1 1 1
-1.010595 -1.873744 0.570437 2 2 2
-0.332891 -0.617213 -0.187903 8 8 8
-1.343204 -2.490434 0.049390 1 1 1
-0.357078 -0.662058 -0.173662 6 6 6
-0.957585 -1.775459 0.105719 76 76 76
-0.937554 -1.738319 -0.383908 25 25 25
-0.966600 -1.792173 0.178146 35 35 35
-0.984603 -1.825551 -0.328512 24 24 24
-0.948925 -1.759402 0.245445 1 1 1
-1.043158 -1.934119 -0.269819 18 18 18
-0.954596 -1.769915 0.318501 2 2 2
-1.096174 -2.032415 -0.202027 14 14 14
-0.966445 -1.791885 0.395738 1 1 1
-1.170909 -2.170982 -0.129270 13 13 13
-0.991678 -1.838669 0.482295 1 1 1
-1.239735 -2.298592 -0.045586 3 3 3
-0.999590 -1.853340 0.564226 3 3 3
-0.339762 -0.620074 -0.189456 4 4 4
-1.350083 -2.463934 0.049041 1 1 1
-0.907398 -1.656024 -0.435955 5 5 5
-0.969340 -1.769069 0.105719 71 71 71
-0.946232 -1.726897 -0.382763 26 26 26
-0.974635 -1.778734 0.177449 35 35 35
-0.992892 -1.812052 -0.327261 21 21 21
-0.967250 -1.765256 0.247151 1 1 1
-1.056916 -1.928899 -0.270062 19 19 19
-0.965364 -1.761813 0.318188 1 1 1
-0.977364 -1.783714 0.395356 1 1 1
-1.189121 -2.170174 -0.129688 11 11 11
-1.007596 -1.838887 0.484095 1 1 1
-1.259757 -2.299087 -0.045760 5 5 5
-1.013717 -1.850058 0.565261 2 2 2
-0.334192 -0.609909 -0.186350 4 4 4
-1.350083 -2.463934 0.049041 1 1 1
-0.903652 -1.649188 -0.434156 10 10 10
-0.973179 -1.776075 0.106137 71 71 71
-0.947176 -1.728619 -0.383144 22 22 22
-0.976550 -1.782228 0.177798 36 36 36
-0.990993 -1.808587 -0.326635 23 23 23
-0.964389 -1.760033 0.246420 1 1 1
-1.057870 -1.930640 -0.270306 15 15 15
-0.968212 -1.767010 0.319126 1 1 1
-1.052185 -1.920264 -0.191568 1 1 1
-0.986798 -1.800931 0.399172 1 1 1
-1.003850 -1.832051 0.482295 1 1 1
-1.263600 -2.306102 -0.045900 9 9 9
-1.011860 -1.846670 0.564226 2 2 2
-0.344191 -0.617627 -0.189456 4 4 4
-1.377414 -2.471678 0.049390 5 5 5
-0.913533 -1.639275 -0.433256 15 15 15
-0.978085 -1.755109 0.105300 73 73 73
-0.962388 -1.726942 -0.384289 25 25 25
-0.994128 -1.783897 0.178669 38 38 38
-1.009679 -1.811802 -0.328512 21 21 21
-0.976958 -1.753087 0.246420 1 1 1
-1.067793 -1.916084 -0.269331 11 11 11
-0.968330 -1.737605 0.315059 1 1 1
-1.060080 -1.902243 -0.190522 1 1 1
-0.991059 -1.778390 0.395738 2 2 2
-1.046142 -1.877233 -0.112627 1 1 1
-1.007448 -1.807799 0.477796 1 1 1
-1.021287 -1.832632 0.562155 2 2 2
-0.369582 -0.663190 -0.203432 3 3 3
-1.384228 -2.483905 0.049635 4 4 4
-0.915431 -1.642679 -0.434156 22 22 22
-0.978085 -1.755109 0.105300 71 71 71
-0.954742 -1.713222 -0.381236 26 26 26
-0.993158 -1.782156 0.178495 35 35 35
-1.017372 -1.825607 -0.331015 25 25 25
-0.983723 -1.765225 0.248126 2 2 2
-1.067793 -1.916084 -0.269331 7 7 7
-0.962561 -1.727252 0.313182 1 1 1
-1.077538 -1.933570 -0.193660 1 1 1
-0.990103 -1.776675 0.395356 2 2 2
-1.030586 -1.849319 -0.110952 1 1 1
-1.009345 -1.811203 0.478696 1 1 1
-1.036711 -1.860309 -0.037174 1 1 1
-1.025049 -1.839382 0.564226 1 1 1
-0.876948 -1.548109 -0.476745 5 5 5
-0.926876 -1.636249 -0.434156 24 24 24
-0.993267 -1.753451 0.105614 66 66 66
-0.967647 -1.708223 -0.381618 29 29 29
-0.997719 -1.761311 0.177100 31 31 31
-1.021330 -1.802991 -0.328200 20 20 20
-0.994065 -1.754860 0.247639 2 2 2
-1.074295 -1.896492 -0.267625 11 11 11
-0.988226 -1.744552 0.317562 1 1 1
-1.143057 -2.017880 -0.202899 6 6 6
-1.005386 -1.774844 0.396501 1 1 1
-1.041503 -1.838604 -0.110743 1 1 1
-1.012360 -1.787156 0.474197 1 1 1
-1.033903 -1.825187 -0.036615 1 1 1
-1.028343 -1.815372 0.559049 1 1 1
-0.883613 -1.559875 -0.480368 14 14 14
-1.018133 -1.797348 0.036057 1 1 1
-0.927837 -1.637944 -0.434605 24 24 24
-0.995236 -1.756927 0.105823 66 66 66
-0.969583 -1.711640 -0.382381 27 27 27
-0.997719 -1.761311 0.177100 35 35 35
-1.024250 -1.808147 -0.329138 23 23 23
-0.997001 -1.760042 0.248370 1 1 1
-1.081144 -1.908583 -0.269331 18 18 18
-0.992121 -1.751427 0.318813 1 1 1
-1.142075 -2.016146 -0.202724 13 13 13
-0.986033 -1.740679 0.388869 1 1 1
-1.209837 -2.135769 -0.128642 3 3 3
-1.008518 -1.780374 0.472397 1 1 1
-1.025033 -1.809528 -0.036301 1 1 1
-1.024534 -1.808648 0.556979 1 1 1
-0.893518 -1.551994 -0.479851 21 21 21
-1.042629 -1.810993 0.036476 1 1 1
-0.936332 -1.626360 -0.433256 24 24 24
-1.009470 -1.753398 0.106033 59 59 59
-0.983467 -1.708232 -0.383144 27 27 27
-1.013968 -1.761209 0.177798 36 36 36
-1.030935 -1.790681 -0.327261 20 20 20
-0.999359 -1.735835 0.245932 1 1 1
-1.098404 -1.907870 -0.270306 16 16 16
-0.996439 -1.730763 0.316310 1 1 1
-1.162086 -2.018484 -0.203770 18 18 18
-0.983467 -1.708232 0.383144 1 1 1
-1.235679 -2.146311 -0.129793 17 17 17
-1.018978 -1.769912 0.471497 1 1 1
-1.219227 -2.117735 -0.042654 1 1 1
-1.023642 -1.778013 0.549732 1 1 1
-0.892554 -1.550320 -0.479333 24 24 24
-1.023672 -1.778065 0.035812 1 1 1
-0.934387 -1.622983 -0.432356 25 25 25
-1.012460 -1.758590 0.106347 65 65 65
-0.985427 -1.711635 -0.383908 28 28 28
-1.017944 -1.768116 0.178495 36 36 36
-1.038820 -1.804376 -0.329764 23 23 23
-0.997378 -1.732394 0.245445 1 1 1
-1.094442 -1.900989 -0.269331 16 16 16
-0.998410 -1.734187 0.316936 1 1 1
-1.157116 -2.009850 -0.202899 18 18 18
-0.990324 -1.720142 0.385816 1 1 1
-1.232690 -2.141118 -0.129479 18 18 18
-1.015089 -1.763157 0.469698 1 1 1
-1.311019 -2.277172 -0.045865 11 11 11
-1.050630 -1.824890 0.564226 1 1 1
-0.901673 -1.540559 -0.478298 27 27 27
-1.423240 -2.431685 0.049181 2 2 2
-0.946962 -1.617937 -0.432806 24 24 24
-1.024009 -1.749576 0.106242 63 63 63
-0.995666 -1.701151 -0.383144 29 29 29
-1.033589 -1.765945 0.179018 40 40 40
-1.047714 -1.790077 -0.328512 24 24 24
-1.007744 -1.721786 0.244957 1 1 1
-1.108017 -1.893108 -0.269331 16 16 16
-1.005805 -1.718474 0.315372 3 3 3
-1.169456 -1.998080 -0.202550 16 16 16
-1.000624 -1.709623 0.385053 1 1 1
-1.244953 -2.127071 -0.129165 13 13 13
-1.019805 -1.742393 0.466099 1 1 1
-1.324250 -2.262554 -0.045760 12 12 12
-1.050000 -1.793984 0.556979 1 1 1
-0.897770 -1.533890 -0.476227 28 28 28
-1.432331 -2.447217 0.049495 8 8 8
-0.951883 -1.626346 -0.435055 23 23 23
-1.028045 -1.756471 0.106661 61 61 61
-0.990707 -1.692679 -0.381236 26 26 26
-1.027551 -1.755628 0.177972 38 38 38
-1.051705 -1.796896 -0.329764 25 25 25
-1.108017 -1.893108 -0.269331 16 16 16
-1.004807 -1.716769 0.315059 4 4 4
-1.169456 -1.998080 -0.202550 16 16 16
-1.010541 -1.726566 0.388869 1 1 1
-1.251006 -2.137414 -0.129793 12 12 12
-1.007992 -1.722211 0.460700 1 1 1
-1.329300 -2.271184 -0.045935 13 13 13
-1.020725 -1.743966 0.541449 1 1 1
-0.906481 -1.524264 -0.475192 26 26 26
-1.450403 -2.438877 0.049530 15 15 15
-0.961222 -1.616311 -0.434156 23 23 23
-1.041303 -1.750968 0.106765 57 57 57
-1.002500 -1.685721 -0.381236 25 25 25
-1.040801 -1.750124 0.178146 42 42 42
-1.060185 -1.782719 -0.328512 21 21 21
-1.127294 -1.895564 -0.270794 15 15 15
-1.021817 -1.718202 0.316623 4 4 4
-1.179303 -1.983017 -0.201853 16 16 16
-1.000493 -1.682346 0.380473 1 1 1
-1.261814 -2.121761 -0.129374 14 14 14
-1.016007 -1.708432 0.458900 1 1 1
-1.346146 -2.263567 -0.045970 13 13 13
-1.036825 -1.743439 0.543520 1 1 1
-0.912406 -1.534226 -0.478298 27 27 27
-1.446315 -2.432002 0.049390 11 11 11
-0.959230 -1.612961 -0.433256 24 24 24
-1.042324 -1.752685 0.106870 53 53 53
-1.006514 -1.692471 -0.382763 26 26 26
-1.040801 -1.750124 0.178146 14 14 14
-1.054127 -1.772532 -0.326635 20 20 20
-1.036989 -1.743714 0.249101 1 1 1
-1.127294 -1.895564 -0.270794 10 10 10
-1.019797 -1.714806 0.315998 4 4 4
-1.183376 -1.989867 -0.202550 16 16 16
-1.013539 -1.704283 0.385434 1 1 1
-1.259772 -2.118328 -0.129165 13 13 13
-1.025968 -1.725182 0.463399 1 1 1
-1.350234 -2.270442 -0.046109 13 13 13
-1.063486 -1.788270 0.557496 1 1 1
-0.926823 -1.534595 -0.480368 26 26 26
-1.462835 -2.422101 0.049390 7 7 7
-0.965149 -1.598054 -0.431006 24 24 24
-1.021056 -1.690622 -0.383908 28 28 28
-1.068210 -1.768698 -0.327261 15 15 15
-1.031387 -1.707728 0.244957 4 4 4
-1.032467 -1.709516 0.316310 4 4 4
-1.198953 -1.985177 -0.202899 16 16 16
-1.020041 -1.688942 0.383526 1 1 1
-1.268999 -2.101156 -0.128642 12 12 12
-1.046754 -1.733171 0.467448 2 2 2
-1.363590 -2.257775 -0.046039 13 13 13
-1.077632 -1.784297 0.558531 1 1 1
-0.924826 -1.531288 -0.479333 25 25 25
-0.967164 -1.601390 -0.431906 24 24 24
-1.029449 -1.704518 0.104358 1 1 1
-1.014966 -1.680539 -0.381618 27 27 27
-1.046509 -1.732766 0.177100 1 1 1
-1.034466 -1.712826 -0.245689 1 1 1
-1.026340 -1.699370 0.314433 3 3 3
-1.029176 -1.704066 0.386961 1 1 1
-1.272097 -2.106285 -0.128956 14 14 14
-1.055821 -1.748184 0.471497 3 3 3
-1.357387 -2.247504 -0.045830 13 13 13
-1.078630 -1.785951 0.559049 1 1 1
-0.931452 -1.518207 -0.477262 26 26 26
-1.045731 -1.704473 0.034905 1 1 1
-0.981378 -1.599582 -0.433256 23 23 23
-1.046545 -1.705801 0.104881 1 1 1
-1.026674 -1.673412 -0.381618 27 27 27
