-0.282867 -2.327267 -0.287855 12 12 12
-0.440457 -3.623827 0.578182 86 86 86
-0.299292 -2.462403 -0.217018 15 15 15
-0.437043 -3.595742 0.704085 100 100 100
-0.320266 -2.634965 -0.139109 12 12 12
-0.428639 -3.526599 0.820172 100 100 100
-0.341648 -2.810882 -0.049425 11 11 11
-0.423759 -3.486448 0.941066 100 100 100
-0.239818 -1.864330 -0.503662 24 24 24
-0.392644 -3.052381 0.053719 11 11 11
-0.254098 -1.975337 -0.459800 25 25 25
-0.428604 -3.331936 0.176058 10 10 10
-0.266260 -2.069884 -0.405660 22 22 22
-0.465435 -3.618252 0.319164 8 8 8
-0.281513 -2.188464 -0.349475 20 20 20
-0.474620 -3.689662 0.456766 100 100 100
-0.299614 -2.329173 -0.288343 12 12 12
-0.467257 -3.632419 0.580059 92 92 92
-0.316475 -2.460253 -0.217018 14 14 14
-0.460131 -3.577025 0.701032 100 100 100
-0.340182 -2.644551 -0.139737 11 11 11
-0.455238 -3.538984 0.823771 100 100 100
-0.362283 -2.816362 -0.049565 12 12 12
-0.447595 -3.479572 0.940031 100 100 100
-0.239818 -1.864330 -0.503662 25 25 25
-0.391878 -3.046431 0.053614 12 12 12
-0.252357 -1.961807 -0.456651 24 24 24
-0.427075 -3.320050 0.175430 9 9 9
-0.265509 -2.064043 -0.404515 23 23 23
-0.463655 -3.604419 0.317944 8 8 8
-0.280253 -2.178668 -0.347910 19 19 19
-0.473607 -3.681786 0.455791 100 100 100
-0.298854 -2.323266 -0.287612 12 12 12
-0.469273 -3.648093 0.582562 92 92 92
-0.316475 -2.460253 -0.217018 14 14 14
-0.460632 -3.580920 0.701795 100 100 100
-0.337379 -2.622761 -0.138586 11 11 11
-0.455735 -3.542849 0.824671 100 100 100
-0.362283 -2.816362 -0.049565 11 11 11
-0.449074 -3.491069 0.943137 100 100 100
-0.253348 -1.866439 -0.504697 23 23 23
-0.412599 -3.039658 0.053544 11 11 11
-0.265261 -1.954204 -0.455301 23 23 23
-0.447557 -3.297197 0.174383 9 9 9
-0.279648 -2.060194 -0.404133 21 21 21
-0.489611 -3.607018 0.318467 8 8 8
-0.295988 -2.180573 -0.348536 18 18 18
-0.499833 -3.682324 0.456279 100 100 100
-0.313998 -2.313255 -0.286637 12 12 12
-0.494199 -3.640813 0.581936 88 88 88
-0.334715 -2.465881 -0.217715 13 13 13
-0.487733 -3.593180 0.704848 100 100 100
-0.353532 -2.604508 -0.137748 11 11 11
-0.479933 -3.535719 0.823771 100 100 100
-0.380860 -2.805838 -0.049425 11 11 11
-0.476034 -3.506992 0.948313 100 100 100
-0.254127 -1.872182 -0.506250 22 22 22
-0.413137 -3.043621 0.053614 11 11 11
-0.264999 -1.952273 -0.454851 24 24 24
-0.446213 -3.287301 0.173860 10 10 10
-0.278063 -2.048521 -0.401844 21 21 21
-0.488807 -3.601095 0.317944 8 8 8
-0.295988 -2.180573 -0.348536 19 19 19
-0.500367 -3.686258 0.456766 100 100 100
-0.313464 -2.309321 -0.286149 15 15 15
-0.494199 -3.640813 0.581936 88 88 88
-0.332571 -2.450087 -0.216321 13 13 13
-0.488789 -3.600961 0.706375 100 100 100
-0.354069 -2.608467 -0.137958 11 11 11
-0.479933 -3.535719 0.823771 100 100 100
-0.379784 -2.797912 -0.049286 12 12 12
-0.474994 -3.499334 0.946242 100 100 100
-0.264186 -1.849326 -0.500556 17 17 17
-0.433526 -3.034724 0.053509 11 11 11
-0.279999 -1.960021 -0.457101 23 23 23
-0.469434 -3.286083 0.173965 10 10 10
-0.292635 -2.048473 -0.402225 20 20 20
-0.511963 -3.583788 0.316724 8 8 8
-0.312042 -2.184320 -0.349475 20 20 20
-0.528616 -3.700362 0.458960 96 96 96
-0.329578 -2.307076 -0.286149 16 16 16
-0.520163 -3.641185 0.582562 92 92 92
-0.348541 -2.439816 -0.215623 13 13 13
-0.515027 -3.605235 0.707901 100 100 100
-0.371706 -2.601977 -0.137748 10 10 10
-0.506259 -3.543857 0.826470 100 100 100
-0.397611 -2.783315 -0.049076 12 12 12
-0.265552 -1.858888 -0.503144 7 7 7
-0.431547 -3.020866 0.053265 10 10 10
-0.279999 -1.960021 -0.457101 24 24 24
-0.469152 -3.284106 0.173860 9 9 9
-0.292913 -2.050417 -0.402607 21 21 21
-0.510836 -3.575898 0.316027 8 8 8
-0.308969 -2.162809 -0.346033 17 17 17
-0.530020 -3.710187 0.460179 99 99 99
-0.330140 -2.311007 -0.286637 18 18 18
-0.521280 -3.649007 0.583813 88 88 88
-0.349668 -2.447705 -0.216321 9 9 9
-0.513361 -3.593574 0.705612 100 100 100
-0.373966 -2.617794 -0.138586 10 10 10
-0.506810 -3.547716 0.827370 100 100 100
-0.398460 -2.789254 -0.049181 11 11 11
-0.493402 -3.453860 0.934854 13 13 13
-0.280242 -1.868452 -0.506250 0 0 0
-0.451143 -3.007892 0.053090 10 10 10
-0.291075 -1.940674 -0.453051 22 22 22
-0.491475 -3.276800 0.173651 9 9 9
-0.307512 -2.050264 -0.402989 24 24 24
-0.536970 -3.580126 0.316724 8 8 8
-0.324939 -2.166460 -0.346972 15 15 15
-0.554142 -3.694618 0.458716 76 76 76
-0.345087 -2.300793 -0.285662 16 16 16
-0.548500 -3.657000 0.585691 88 88 88
-0.366156 -2.441264 -0.215972 13 13 13
-0.539601 -3.597669 0.707138 100 100 100
-0.388677 -2.591418 -0.137330 11 11 11
-0.417329 -2.782449 -0.049111 11 11 11
-0.286546 -1.910482 -0.517638 1 1 1
-0.452329 -3.015803 0.053230 11 11 11
-0.291075 -1.940674 -0.453051 23 23 23
-0.489698 -3.264949 0.173023 10 10 10
-0.307512 -2.050264 -0.402989 23 23 23
-0.537266 -3.582097 0.316898 9 9 9
-0.324939 -2.166460 -0.346972 15 15 15
-0.552670 -3.684802 0.457498 48 48 48
-0.342732 -2.285088 -0.283712 16 16 16
-0.549672 -3.664814 0.586942 88 88 88
-0.364974 -2.433383 -0.215275 12 12 12
-0.540766 -3.605435 0.708665 100 100 100
-0.388677 -2.591418 -0.137330 11 11 11
-0.526073 -3.507475 0.818822 5 5 5
-0.416736 -2.778493 -0.049041 10 10 10
-0.520941 -3.473257 0.941066 78 78 78
-0.473062 -3.010596 0.053195 11 11 11
-0.305221 -1.942445 -0.453951 17 17 17
-0.510929 -3.251586 0.172499 10 10 10
-0.320598 -2.040309 -0.401462 22 22 22
-0.564116 -3.590068 0.317944 9 9 9
-0.339443 -2.160236 -0.346346 15 15 15
-0.582695 -3.708309 0.460910 15 15 15
-0.359293 -2.286562 -0.284199 16 16 16
-0.574630 -3.656985 0.586316 92 92 92
-0.383190 -2.438648 -0.215972 16 16 16
-0.406759 -2.588641 -0.137330 11 11 11
-0.435813 -2.773541 -0.049006 12 12 12
-0.544576 -3.465718 0.940031 81 81 81
-0.119951 -0.763374 -0.207055 3 3 3
-0.473062 -3.010596 0.053195 11 11 11
-0.307641 -1.957846 -0.457550 3 3 3
-0.511549 -3.255532 0.172709 9 9 9
-0.319379 -2.032551 -0.399936 22 22 22
-0.562260 -3.578259 0.316898 11 11 11
-0.341283 -2.171944 -0.348223 16 16 16
-0.585160 -3.723997 0.462860 12 12 12
-0.359293 -2.286562 -0.284199 16 16 16
-0.574630 -3.656985 0.586316 88 88 88
-0.380716 -2.422902 -0.214577 12 12 12
-0.559219 -3.558904 0.700269 1 1 1
-0.407999 -2.596533 -0.137748 10 10 10
-0.548430 -3.490241 0.815673 60 60 60
-0.433950 -2.761688 -0.048797 13 13 13
-0.545176 -3.469535 0.941066 75 75 75
-0.113135 -0.690118 -0.187385 4 4 4
-0.489136 -2.983712 0.052776 9 9 9
-0.317782 -1.938455 -0.453501 1 1 1
-0.531514 -3.242213 0.172185 9 9 9
-0.333170 -2.032326 -0.400317 20 20 20
-0.583401 -3.558722 0.315504 9 9 9
-0.352484 -2.150140 -0.345094 16 16 16
-0.609846 -3.720034 0.462860 10 10 10
-0.375734 -2.291964 -0.285174 14 14 14
-0.395488 -2.412459 -0.213880 13 13 13
-0.423919 -2.585887 -0.137330 11 11 11
-0.574718 -3.505757 0.820172 72 72 72
-0.453227 -2.764670 -0.048902 11 11 11
-0.568800 -3.469656 0.942101 78 78 78
-0.115635 -0.705370 -0.191526 4 4 4
-0.488813 -2.981738 0.052741 10 10 10
-0.531191 -3.240242 0.172081 10 10 10
-0.334123 -2.038138 -0.401462 20 20 20
-0.583401 -3.558722 0.315504 9 9 9
-0.352165 -2.148190 -0.344782 14 14 14
-0.609203 -3.716116 0.462372 10 10 10
-0.375092 -2.288046 -0.284687 15 15 15
-0.396777 -2.420324 -0.214577 12 12 12
-0.579634 -3.535743 0.696453 60 60 60
-0.420688 -2.566177 -0.136283 11 11 11
-0.575979 -3.513450 0.821971 46 46 46
-0.453874 -2.768616 -0.048971 11 11 11
-0.569425 -3.473469 0.943137 78 78 78
-0.120027 -0.700716 -0.190491 4 4 4
-0.509799 -2.976193 0.052706 10 10 10
-0.552678 -3.226515 0.171557 10 10 10
-0.347373 -2.027954 -0.399936 9 9 9
-0.609524 -3.558384 0.315852 9 9 9
-0.366861 -2.141721 -0.344156 17 17 17
-0.632428 -3.692096 0.459935 1 1 1
-0.390115 -2.277477 -0.283712 15 15 15
-0.415768 -2.427242 -0.215449 17 17 17
-0.608566 -3.552790 0.700651 35 35 35
-0.440389 -2.570975 -0.136702 11 11 11
-0.601435 -3.511159 0.822421 38 38 38
-0.473337 -2.763327 -0.048937 12 12 12
-0.117744 -0.687387 -0.186867 4 4 4
-0.512500 -2.991961 0.052986 10 10 10
-0.118445 -0.691475 -0.161965 7 7 7
-0.551329 -3.218641 0.171139 9 9 9
-0.608851 -3.554456 0.315504 11 11 11
-0.366861 -2.141721 -0.344156 18 18 18
-0.622038 -3.631441 0.452379 3 3 3
-0.389109 -2.271607 -0.282981 12 12 12
-0.616326 -3.598092 0.578182 65 65 65
-0.415432 -2.425278 -0.215275 13 13 13
-0.607240 -3.545050 0.699124 67 67 67
-0.439040 -2.563101 -0.136283 11 11 11
-0.600777 -3.507317 0.821521 39 39 39
-0.469623 -2.741646 -0.048553 11 11 11
-0.121980 -0.682723 -0.185832 4 4 4
-0.531787 -2.976406 0.052776 10 10 10
-0.126817 -0.709794 -0.166464 6 6 6
-0.573644 -3.210681 0.170929 10 10 10
-0.376724 -2.108521 -0.416345 1 1 1
-0.625860 -3.502936 0.311320 9 9 9
-0.384262 -2.150709 -0.346033 14 14 14
-0.406402 -2.274627 -0.283712 12 12 12
-0.643100 -3.599423 0.579120 69 69 69
-0.430323 -2.408514 -0.214055 15 15 15
-0.637081 -3.565739 0.704085 78 78 78
-0.459477 -2.571691 -0.136911 11 11 11
-0.490285 -2.744120 -0.048657 12 12 12
-0.625192 -3.499195 0.952454 1 1 1
-0.120621 -0.675116 -0.183762 4 4 4
-0.529676 -2.964595 0.052567 10 10 10
-0.118591 -0.663753 -0.155666 7 7 7
-0.573644 -3.210681 0.170929 9 9 9
-0.624108 -3.493130 0.310449 8 8 8
-0.383219 -2.144875 -0.345094 8 8 8
-0.651500 -3.646439 0.454816 66 66 66
-0.407100 -2.278536 -0.284199 15 15 15
-0.643100 -3.599423 0.579120 57 57 57
-0.429272 -2.402630 -0.213532 13 13 13
-0.636391 -3.561873 0.703322 66 66 66
-0.459477 -2.571691 -0.136911 11 11 11
-0.490285 -2.744120 -0.048657 12 12 12
-0.610921 -3.419322 0.930713 1 1 1
-0.125214 -0.674280 -0.183762 4 4 4
-0.547653 -2.949124 0.052357 10 10 10
-0.127020 -0.684006 -0.160615 7 7 7
-0.595120 -3.204738 0.170825 9 9 9
-0.651508 -3.508390 0.312192 9 9 9
-0.396007 -2.132506 -0.343530 1 1 1
-0.676305 -3.641920 0.454816 88 88 88
-0.420425 -2.264001 -0.282737 13 13 13
-0.669028 -3.602731 0.580372 58 58 58
-0.446343 -2.403570 -0.213880 12 12 12
-0.473325 -2.548867 -0.135864 11 11 11
-0.662497 -3.567563 0.837718 1 1 1
-0.509682 -2.744652 -0.048727 11 11 11
-0.633476 -3.411286 0.929678 1 1 1
-0.130857 -0.704670 -0.192044 4 4 4
-0.549478 -2.958955 0.052532 10 10 10
-0.123462 -0.664847 -0.156116 7 7 7
-0.593297 -3.194920 0.170301 9 9 9
-0.129400 -0.696822 -0.137764 10 10 10
-0.651872 -3.510348 0.312366 9 9 9
-0.398171 -2.144159 -0.345407 1 1 1
-0.674855 -3.634113 0.453841 78 78 78
-0.420788 -2.265953 -0.282981 14 14 14
-0.671913 -3.618268 0.582875 22 22 22
-0.445616 -2.399652 -0.213532 13 13 13
-0.472596 -2.544939 -0.135655 11 11 11
-0.647553 -3.487091 0.818822 1 1 1
-0.508222 -2.736788 -0.048587 12 12 12
-0.638414 -3.437877 0.936925 1 1 1
-0.133212 -0.690461 -0.188420 4 4 4
-0.569743 -2.953083 0.052497 9 9 9
-0.129946 -0.673536 -0.158366 7 7 7
-0.614830 -3.186778 0.170092 10 10 10
-0.140212 -0.726745 -0.143870 9 9 9
-0.677118 -3.509625 0.312715 9 9 9
-0.700209 -3.629313 0.453841 69 69 69
-0.433964 -2.249316 -0.281274 10 10 10
-0.464622 -2.408221 -0.214577 12 12 12
-0.691019 -3.581676 0.709046 1 1 1
-0.490351 -2.541578 -0.135655 11 11 11
-0.662653 -3.434649 0.807574 1 1 1
-0.525043 -2.721392 -0.048378 13 13 13
-0.664595 -3.444718 0.940031 1 1 1
-0.132846 -0.688564 -0.187903 4 4 4
-0.568228 -2.945229 0.052357 10 10 10
-0.133269 -0.690757 -0.162415 7 7 7
-0.614074 -3.182856 0.169883 10 10 10
-0.129055 -0.668914 -0.132421 11 11 11
-0.674098 -3.493974 0.311320 9 9 9
-0.437349 -2.266859 -0.283468 2 2 2
-0.707635 -3.667798 0.591635 1 1 1
-0.460093 -2.384745 -0.212486 13 13 13
-0.685812 -3.554688 0.703704 1 1 1
-0.490351 -2.541578 -0.135655 11 11 11
-0.671143 -3.478659 0.817922 1 1 1
-0.523527 -2.713538 -0.048238 12 12 12
-0.663131 -3.437130 0.937960 1 1 1
-0.364411 -1.820393 -0.497450 11 11 11
-0.586421 -2.929426 0.052148 9 9 9
-0.137323 -0.685988 -0.161515 7 7 7
-0.635887 -3.176533 0.169778 9 9 9
-0.136804 -0.683397 -0.135474 10 10 10
-0.694563 -3.469647 0.309577 9 9 9
-0.457450 -2.285161 -0.286149 1 1 1
-0.723530 -3.614345 0.583813 1 1 1
-0.475166 -2.373660 -0.211788 13 13 13
-0.705216 -3.522863 0.698361 1 1 1
-0.508866 -2.542009 -0.135864 11 11 11
-0.695413 -3.473888 0.817922 1 1 1
-0.542459 -2.709817 -0.048238 11 11 11
-0.682560 -3.409686 0.931749 1 1 1
-0.364032 -1.818499 -0.496933 15 15 15
-0.585635 -2.925504 0.052078 9 9 9
-0.135028 -0.674523 -0.158815 7 7 7
-0.635103 -3.172616 0.169568 9 9 9
-0.135263 -0.675697 -0.133948 10 10 10
-0.691826 -3.455971 0.308357 5 5 5
-0.704099 -3.517280 0.440436 1 1 1
-0.721203 -3.602723 0.581936 1 1 1
-0.478686 -2.391243 -0.213357 10 10 10
-0.710226 -3.547889 0.703322 1 1 1
-0.507298 -2.534176 -0.135445 11 11 11
-0.691970 -3.456691 0.813873 2 2 2
-0.545206 -2.723542 -0.048483 11 11 11
-0.689386 -3.443782 0.941066 1 1 1
-0.377896 -1.821588 -0.498485 23 23 23
-0.605233 -2.917428 0.052008 10 10 10
-0.134983 -0.650666 -0.153417 8 8 8
-0.655208 -3.158327 0.169045 9 9 9
-0.143167 -0.690114 -0.137001 10 10 10
-0.715531 -3.449106 0.308183 8 8 8
-0.134822 -0.649889 -0.105124 17 17 17
-0.731056 -3.523941 0.441898 1 1 1
-0.746738 -3.599535 0.582249 1 1 1
-0.498606 -2.403450 -0.214752 2 2 2
-0.734977 -3.542844 0.703322 1 1 1
-0.522543 -2.518839 -0.134817 11 11 11
-0.716877 -3.455592 0.814773 1 1 1
-0.562176 -2.709880 -0.048308 12 12 12
-0.716550 -3.454018 0.945207 1 1 1
-0.376719 -1.815913 -0.496933 25 25 25
-0.606451 -2.923302 0.052113 9 9 9
-0.396242 -1.910021 -0.450352 4 4 4
-0.653991 -3.152460 0.168731 9 9 9
-0.139977 -0.674736 -0.133948 10 10 10
-0.716341 -3.453008 0.308531 8 8 8
-0.137230 -0.661494 -0.107001 17 17 17
-0.731459 -3.525885 0.442142 1 1 1
-0.148389 -0.715284 -0.089696 11 11 11
-0.744331 -3.587930 0.580372 1 1 1
-0.495773 -2.389794 -0.213532 1 1 1
-0.737370 -3.554378 0.705612 1 1 1
-0.524978 -2.530572 -0.135445 11 11 11
-0.718064 -3.461316 0.816122 1 1 1
-0.558926 -2.694216 -0.048029 12 12 12
-0.714588 -3.444561 0.942619 1 1 1
-0.386953 -1.801906 -0.493827 24 24 24
-0.628524 -2.926818 0.052253 9 9 9
-0.411203 -1.914829 -0.452152 10 10 10
-0.676402 -3.149770 0.168836 9 9 9
-0.140562 -0.654547 -0.130132 11 11 11
-0.739175 -3.442079 0.308008 13 13 13
-0.141844 -0.660520 -0.107001 17 17 17
-0.742302 -3.456644 0.434099 1 1 1
-0.153379 -0.714231 -0.089696 11 11 11
-0.773508 -3.601959 0.583501 1 1 1
-0.763815 -3.556821 0.707138 1 1 1
-0.543889 -2.532704 -0.135759 3 3 3
-0.748758 -3.486704 0.823321 1 1 1
-0.578561 -2.694158 -0.048099 7 7 7
-0.741052 -3.450821 0.945725 1 1 1
-0.386953 -1.801906 -0.493827 23 23 23
-0.623906 -2.905312 0.051869 9 9 9
-0.409566 -1.907208 -0.450352 18 18 18
-0.675564 -3.145864 0.168626 7 7 7
-0.144684 -0.673742 -0.133948 10 10 10
-0.733318 -3.414807 0.305568 8 8 8
-0.139356 -0.648932 -0.105124 17 17 17
-0.729799 -3.398419 0.426786 1 1 1
-0.145460 -0.677355 -0.085065 13 13 13
-0.775997 -3.613548 0.585378 1 1 1
-0.764640 -3.560660 0.707901 1 1 1
-0.748758 -3.486704 0.823321 1 1 1
-0.578981 -2.696114 -0.048134 2 2 2
-0.740241 -3.447043 0.944690 1 1 1
-0.399209 -1.799231 -0.493827 23 23 23
-0.643667 -2.900998 0.051869 4 4 4
-0.421694 -1.900571 -0.449452 23 23 23
-0.696961 -3.141193 0.168626 7 7 7
-0.440995 -1.987559 -0.395738 1 1 1
-0.757408 -3.413627 0.305917 8 8 8
-0.138635 -0.624827 -0.101370 18 18 18
-0.743454 -3.350737 0.421424 1 1 1
-0.145337 -0.655031 -0.082384 14 14 14
-0.798008 -3.596611 0.583501 1 1 1
-0.788008 -3.551540 0.707138 1 1 1
-0.761498 -3.432062 0.811623 1 1 1
-0.596886 -2.690158 -0.048099 9 9 9
-0.769545 -3.468328 0.951936 1 1 1
-0.400046 -1.803003 -0.494862 26 26 26
-0.642367 -2.895141 0.051764 3 3 3
-0.419584 -1.891059 -0.447203 23 23 23
-0.694798 -3.131444 0.168103 7 7 7
-0.441846 -1.991392 -0.396501 3 3 3
-0.755250 -3.403901 0.305045 5 5 5
-0.144626 -0.651825 -0.105750 17 17 17
-0.736144 -3.317792 0.417281 1 1 1
-0.141897 -0.639528 -0.080434 14 14 14
-0.806138 -3.633252 0.589445 1 1 1
-0.790985 -3.564956 0.709809 1 1 1
-0.760232 -3.426355 0.810274 1 1 1
-0.596020 -2.686253 -0.048029 11 11 11
-0.772474 -3.481530 0.955560 1 1 1
-0.412938 -1.800094 -0.494862 27 27 27
-0.664409 -2.896317 0.051869 8 8 8
-0.432234 -1.884209 -0.446303 20 20 20
-0.714509 -3.114712 0.167475 5 5 5
-0.455206 -1.984352 -0.395738 9 9 9
-0.771570 -3.363455 0.301907 1 1 1
-0.143986 -0.627669 -0.101995 18 18 18
-0.750546 -3.271808 0.412162 1 1 1
-0.146470 -0.638496 -0.080434 14 14 14
-0.833883 -3.635092 0.590697 1 1 1
-0.817352 -3.563032 0.710573 1 1 1
-0.782552 -3.411330 0.808024 1 1 1
-0.612991 -2.672174 -0.047854 3 3 3
-0.821556 -3.581358 0.984548 1 1 1
-0.410346 -1.788796 -0.491756 27 27 27
-0.664409 -2.896317 0.051869 10 10 10
-0.433105 -1.888008 -0.447203 22 22 22
-0.713169 -3.108872 0.167161 2 2 2
-0.453451 -1.976698 -0.394211 12 12 12
-0.770679 -3.359571 0.301559 1 1 1
-0.483193 -2.106351 -0.342279 1 1 1
-0.742557 -3.236981 0.407775 1 1 1
-0.146026 -0.636561 -0.080190 14 14 14
-0.832558 -3.629316 0.589758 1 1 1
-0.151908 -0.662204 -0.059440 16 16 16
-0.823059 -3.587908 0.715534 1 1 1
-0.809567 -3.529093 0.835918 1 1 1
-0.614780 -2.679971 -0.047994 1 1 1
-0.814645 -3.551231 0.976265 1 1 1
-0.422513 -1.785962 -0.491756 26 26 26
-0.680886 -2.878106 0.051624 10 10 10
-0.447292 -1.890705 -0.448552 21 21 21
-0.733854 -3.102002 0.167056 1 1 1
-0.467347 -1.975476 -0.394593 8 8 8
-0.495245 -2.093402 -0.340714 1 1 1
-0.759089 -3.208670 0.404850 1 1 1
-0.157210 -0.664529 -0.083846 13 13 13
-0.854514 -3.612031 0.587881 1 1 1
-0.155495 -0.657277 -0.059092 17 17 17
-0.847010 -3.580312 0.715152 1 1 1
-0.165531 -0.699700 -0.037682 10 10 10
-0.854207 -3.610735 0.856614 1 1 1
-0.845025 -3.571923 0.983512 1 1 1
-0.422513 -1.785962 -0.491756 26 26 26
-0.680886 -2.878106 0.051624 8 8 8
-0.442806 -1.871741 -0.444053 21 21 21
-0.732934 -3.098115 0.166847 1 1 1
-0.469155 -1.983119 -0.396119 8 8 8
-0.492516 -2.081868 -0.338837 4 4 4
-0.752234 -3.179694 0.401194 1 1 1
-0.150812 -0.637484 -0.080434 14 14 14
-0.858607 -3.629332 0.590697 1 1 1
-0.149073 -0.630133 -0.056651 18 18 18
-0.863733 -3.651001 0.729272 1 1 1
-0.157254 -0.664715 -0.035798 11 11 11
-0.848583 -3.586963 0.987653 1 1 1
-0.434971 -1.782968 -0.491756 24 24 24
-0.702858 -2.881053 0.051764 1 1 1
-0.455400 -1.866711 -0.443603 21 21 21
-0.482988 -1.979795 -0.396119 19 19 19
-0.507038 -2.078379 -0.338837 7 7 7
-0.776296 -3.182079 0.402169 2 2 2
-0.145849 -0.597845 -0.075559 16 16 16
-0.912482 -3.740314 0.609782 1 1 1
-0.153469 -0.629077 -0.056651 18 18 18
-0.904556 -3.707824 0.741865 1 1 1
-0.155264 -0.636436 -0.034332 12 12 12
-0.895097 -3.669053 0.871910 1 1 1
-0.878183 -3.599719 0.992830 1 1 1
-0.435886 -1.786722 -0.492791 25 25 25
-0.720868 -2.954877 0.053090 1 1 1
-0.456324 -1.870498 -0.444503 16 16 16
-0.481127 -1.972166 -0.394593 21 21 21
-0.508443 -2.084136 -0.339776 10 10 10
-0.774414 -3.174365 0.401194 2 2 2
-0.538232 -2.206241 -0.278837 1 1 1
-0.915291 -3.751828 0.611659 1 1 1
-0.150163 -0.615528 -0.055431 19 19 19
-0.890596 -3.650604 0.730417 1 1 1
-0.159051 -0.651959 -0.035170 11 11 11
-0.887707 -3.638761 0.864712 1 1 1
-0.870857 -3.569691 0.984548 1 1 1
-0.445833 -1.772316 -0.489686 25 25 25
-0.157570 -0.626387 0.011274 19 19 19
-0.473025 -1.880413 -0.447653 8 8 8
-0.493311 -1.961057 -0.393067 23 23 23
-0.525271 -2.088107 -0.341027 12 12 12
-0.550131 -2.186932 -0.276887 1 1 1
-0.776341 -3.086184 0.504032 1 1 1
-0.155050 -0.616370 -0.055605 19 19 19
-0.922444 -3.666985 0.734996 1 1 1
-0.167610 -0.666299 -0.036007 11 11 11
-0.909920 -3.617197 0.861113 1 1 1
-0.158546 -0.630265 -0.011344 22 22 22
-0.873757 -3.473440 0.959701 1 1 1
-0.444890 -1.768569 -0.488650 25 25 25
-0.143911 -0.572087 0.010297 22 22 22
-0.471599 -1.874744 -0.446303 15 15 15
-0.491874 -1.955345 -0.391922 18 18 18
-0.519970 -2.067034 -0.337586 11 11 11
-0.554490 -2.204258 -0.279081 6 6 6
-0.153106 -0.608641 -0.054908 19 19 19
-0.164687 -0.654678 -0.035379 11 11 11
-0.837658 -3.329938 0.792728 1 1 1
-0.158546 -0.630265 -0.011344 22 22 22
-0.874700 -3.477187 0.960736 1 1 1
-0.457577 -1.769320 -0.489686 24 24 24
-0.148703 -0.574992 0.010367 21 21 21
-0.483046 -1.867801 -0.445403 22 22 22
-0.167025 -0.645836 0.034960 11 11 11
-0.509747 -1.971047 -0.395738 13 13 13
-0.532679 -2.059715 -0.336960 17 17 17
-0.572079 -2.212064 -0.280543 10 10 10
-0.160132 -0.619186 -0.055954 18 18 18
-0.163524 -0.632301 -0.034228 12 12 12
-0.854846 -3.305443 0.788228 1 1 1
-0.172736 -0.667920 -0.012042 20 20 20
-0.902095 -3.488142 0.965395 1 1 1
-0.459512 -1.776802 -0.491756 24 24 24
-0.162722 -0.629200 0.011344 19 19 19
-0.480119 -1.856481 -0.442704 21 21 21
-0.509747 -1.971047 -0.395738 15 15 15
-0.534657 -2.067365 -0.338211 20 20 20
-0.568599 -2.198611 -0.278837 17 17 17
-0.606607 -2.345575 -0.211963 1 1 1
-0.164024 -0.634234 -0.034332 12 12 12
-0.853870 -3.301669 0.787329 1 1 1
-0.170733 -0.660176 -0.011903 20 20 20
-0.898709 -3.475050 0.961772 1 1 1
-0.471905 -1.773550 -0.491756 16 16 16
-0.185622 -0.697617 0.012601 15 15 15
-0.492065 -1.849318 -0.441804 19 19 19
-0.519457 -1.952262 -0.392685 17 17 17
-0.548569 -2.061673 -0.337898 17 17 17
-0.581893 -2.186914 -0.277862 15 15 15
-0.616307 -2.316253 -0.209697 3 3 3
-0.165367 -0.621493 -0.033704 12 12 12
-0.870886 -3.273029 0.781930 1 1 1
-0.164026 -0.616454 -0.011135 23 23 23
-0.926921 -3.483626 0.965913 1 1 1
-0.470415 -1.767950 -0.490203 8 8 8
-0.148600 -0.558480 0.010087 22 22 22
-0.494571 -1.858734 -0.444053 15 15 15
-0.518952 -1.950365 -0.392303 22 22 22
-0.549077 -2.063582 -0.338211 20 20 20
-0.581893 -2.186914 -0.277862 16 16 16
-0.613233 -2.304701 -0.208651 5 5 5
-0.171529 -0.644655 -0.034960 11 11 11
-0.872890 -3.280562 0.783729 1 1 1
-0.160941 -0.604859 -0.010925 24 24 24
-0.925928 -3.479893 0.964877 1 1 1
-0.479483 -1.751495 -0.486580 16 16 16
-0.170545 -0.622979 0.011274 19 19 19
-0.509917 -1.862666 -0.445853 11 11 11
-0.160317 -0.585619 0.031820 13 13 13
-0.531340 -1.940921 -0.391158 26 26 26
-0.195699 -0.714866 0.064844 9 9 9
-0.560700 -2.048169 -0.336334 21 21 21
-0.594382 -2.171206 -0.276400 17 17 17
-0.628658 -2.296410 -0.208302 10 10 10
-0.680293 -2.485029 -0.135027 1 1 1
-0.895314 -3.270473 0.782830 1 1 1
-0.169489 -0.619122 -0.011204 23 23 23
-0.953866 -3.484358 0.967983 1 1 1
-0.482544 -1.762675 -0.489686 18 18 18
-0.164209 -0.599835 0.010855 20 20 20
-0.504772 -1.843870 -0.441354 13 13 13
-0.533413 -1.948495 -0.392685 25 25 25
-0.560700 -2.048169 -0.336334 20 20 20
-0.598051 -2.184609 -0.278106 20 20 20
-0.629710 -2.300254 -0.208651 14 14 14
-0.668691 -2.442649 -0.132724 1 1 1
-0.894285 -3.266713 0.781930 1 1 1
-0.170545 -0.622979 -0.011274 22 22 22
-0.949785 -3.469451 0.963842 1 1 1
-0.496930 -1.766702 -0.491756 16 16 16
-0.168934 -0.600599 0.010890 20 20 20
-0.517632 -1.840301 -0.441354 18 18 18
-0.545409 -1.939054 -0.391540 24 24 24
-0.573915 -2.040401 -0.335708 21 21 21
-0.609525 -2.167004 -0.276400 24 24 24
-0.644674 -2.291965 -0.208302 13 13 13
-0.686809 -2.441766 -0.132933 3 3 3
-0.914430 -3.251011 0.779680 1 1 1
-0.172724 -0.614074 -0.011135 23 23 23
-0.979214 -3.481333 0.969019 1 1 1
-0.495884 -1.762983 -0.490721 10 10 10
-0.173265 -0.615999 0.011170 19 19 19
-0.519215 -1.845929 -0.442704 22 22 22
-0.544345 -1.935274 -0.390777 23 23 23
-0.577124 -2.051811 -0.337586 20 20 20
-0.606838 -2.157449 -0.275181 19 19 19
-0.647911 -2.303473 -0.209348 14 14 14
-0.689513 -2.451379 -0.133457 5 5 5
-0.910209 -3.236003 0.776081 2 2 2
-0.179221 -0.637174 -0.011553 21 21 21
-0.977122 -3.473894 0.966948 1 1 1
-0.183665 -0.635907 0.011553 18 18 18
-0.533171 -1.846004 -0.443603 22 22 22
-0.176237 -0.610187 0.033286 12 12 12
-0.555664 -1.923882 -0.389250 23 23 23
-0.590886 -2.045834 -0.337273 19 19 19
-0.622436 -2.155067 -0.275425 16 16 16
-0.659553 -2.283581 -0.207954 14 14 14
-0.180863 -0.626205 0.126697 17 17 17
-0.706056 -2.444587 -0.133352 10 10 10
-0.936563 -3.242676 0.779230 2 2 2
-0.189214 -0.655119 -0.011903 20 20 20
-1.005639 -3.481836 0.971089 1 1 1
-0.213886 -0.740540 -0.206538 3 3 3
-0.170348 -0.589799 0.010716 20 20 20
-0.532089 -1.842259 -0.442704 23 23 23
-0.168478 -0.583324 0.031820 13 13 13
-0.556209 -1.925768 -0.389632 12 12 12
-0.587598 -2.034447 -0.335395 19 19 19
-0.626842 -2.170324 -0.277375 18 18 18
-0.197876 -0.685108 0.112946 12 12 12
-0.660659 -2.287409 -0.208302 15 15 15
-0.180863 -0.626205 0.126697 17 17 17
-0.706056 -2.444587 -0.133352 12 12 12
-0.938726 -3.250164 0.781030 3 3 3
-0.755192 -2.614711 -0.047505 1 1 1
-1.006711 -3.485548 0.972124 1 1 1
-0.520144 -1.755978 -0.490721 10 10 10
-0.173223 -0.584791 0.010646 21 21 21
-0.541849 -1.829252 -0.440454 26 26 26
-0.176983 -0.597484 0.032658 13 13 13
-0.573207 -1.935114 -0.392303 14 14 14
-0.600310 -2.026612 -0.334770 19 19 19
-0.638218 -2.154587 -0.275912 16 16 16
-0.210389 -0.710261 0.117326 11 11 11
-0.678477 -2.290500 -0.208999 14 14 14
-0.185121 -0.624959 0.126697 17 17 17
-0.717007 -2.420574 -0.132305 10 10 10
-0.959167 -3.238094 0.779680 5 5 5
-0.197077 -0.665320 -0.012112 19 19 19
-1.019439 -3.441569 0.961772 1 1 1
-0.521242 -1.759683 -0.491756 12 12 12
-0.176631 -0.596295 0.010855 20 20 20
-0.541296 -1.827384 -0.440004 25 25 25
-0.172445 -0.582163 0.031820 13 13 13
-0.573207 -1.935114 -0.392303 18 18 18
-0.601993 -2.032294 -0.335708 20 20 20
-0.637090 -2.150781 -0.275425 16 16 16
-0.219366 -0.740566 0.122332 10 10 10
-0.677345 -2.286680 -0.208651 9 9 9
-0.185121 -0.624959 0.126697 17 17 17
-0.720978 -2.433980 -0.133038 3 3 3
-0.958614 -3.236226 0.779230 5 5 5
-0.189125 -0.638477 -0.011623 21 21 21
-0.531829 -1.750456 -0.490203 12 12 12
-0.209855 -0.690714 0.012601 15 15 15
-0.554040 -1.823560 -0.440004 23 23 23
-0.184633 -0.607699 0.033286 12 12 12
-0.583849 -1.921673 -0.390395 13 13 13
-0.616741 -2.029932 -0.336021 18 18 18
-0.651513 -2.144381 -0.275181 8 8 8
-0.194670 -0.640733 0.106063 14 14 14
-0.189480 -0.623652 0.126697 17 17 17
-0.980617 -3.227590 0.778781 6 6 6
-0.202879 -0.667754 -0.012182 19 19 19
-0.530706 -1.746759 -0.489168 7 7 7
-0.555173 -1.827289 -0.440904 10 10 10
-0.176505 -0.580945 0.031820 13 13 13
-0.577571 -1.901010 -0.386197 4 4 4
-0.616166 -2.028042 -0.335708 4 4 4
-0.195818 -0.644513 0.106688 14 14 14
-0.707193 -2.327648 -0.212834 1 1 1
-0.189480 -0.623652 0.126697 17 17 17
-0.982883 -3.235048 0.780580 6 6 6
-0.539743 -1.731850 -0.486062 3 3 3
-0.190888 -0.612493 0.056128 12 12 12
-0.633602 -2.033011 -0.337273 1 1 1
-0.678063 -2.175673 -0.279812 1 1 1
-0.209829 -0.673270 0.111694 12 12 12
-0.193938 -0.622280 0.126697 17 17 17
-1.009486 -3.239095 0.783280 5 5 5
-0.543767 -1.744761 -0.489686 0 0 0
-0.572293 -1.836293 -0.444053 1 1 1
-0.210371 -0.675008 0.037054 10 10 10
-0.214531 -0.688357 0.114197 12 12 12
-0.193938 -0.622280 0.126697 17 17 17
-0.309868 -0.970944 -0.235299 1 1 1
-0.210804 -0.660535 0.109817 13 13 13
-0.197591 -0.619136 -0.011344 22 22 22
-0.255496 -0.800574 -0.225173 2 2 2
-0.273134 -0.855842 -0.207405 2 2 2
-0.254874 -0.798625 -0.162951 5 5 5
-0.216065 -0.677021 -0.087258 12 12 12
-0.216809 -0.679353 0.112946 12 12 12
-0.229580 -0.719370 -0.066064 13 13 13
-0.208888 -0.654533 -0.036007 11 11 11
-0.214615 -0.672477 -0.012321 19 19 19
-0.207921 -0.651502 0.183244 7 7 7
-0.243073 -0.743683 -0.209643 3 3 3
-0.237933 -0.727957 -0.176812 5 5 5
-0.238485 -0.729647 -0.149213 8 8 8
-0.230264 -0.704493 0.064844 9 9 9
-0.240572 -0.736030 -0.122645 12 12 12
-0.226953 -0.694365 -0.089696 11 11 11
-0.217865 -0.666557 0.111068 13 13 13
-0.219741 -0.672298 -0.061881 15 15 15
-0.202499 -0.619547 0.126697 17 17 17
-0.208488 -0.637871 -0.035170 11 11 11
-0.211849 -0.648153 -0.011903 20 20 20
-0.200460 -0.613309 0.172891 8 8 8
-0.237672 -0.727157 -0.204985 3 3 3
-0.239144 -0.731662 -0.177711 5 5 5
-0.234826 -0.718450 -0.146923 8 8 8
-0.199314 -0.609803 0.056128 12 12 12
-0.229525 -0.702232 -0.117013 13 13 13
-0.223253 -0.683044 -0.088233 12 12 12
-0.233821 -0.715376 0.119203 11 11 11
-0.209837 -0.641997 -0.059092 17 17 17
-0.202499 -0.619547 0.126697 17 17 17
-0.222139 -0.679637 -0.037473 10 10 10
-0.204394 -0.625344 -0.011484 22 22 22
-0.202861 -0.620654 0.174962 8 8 8
-0.246292 -0.736515 -0.208091 3 3 3
-0.242265 -0.724473 -0.176362 5 5 5
-0.234730 -0.701940 -0.143870 9 9 9
-0.235054 -0.702909 0.064844 9 9 9
-0.229288 -0.685667 -0.114510 14 14 14
-0.226638 -0.677743 -0.087746 12 12 12
-0.234926 -0.702527 0.117326 11 11 11
-0.223048 -0.667008 -0.061532 15 15 15
-0.206711 -0.618154 0.126697 17 17 17
-0.219160 -0.655379 -0.036216 11 11 11
-0.217524 -0.650489 -0.011972 20 20 20
-0.213208 -0.637580 0.180138 8 8 8
-0.245066 -0.732851 -0.207055 3 3 3
-0.242265 -0.724473 -0.176362 5 5 5
-0.243446 -0.728007 -0.149213 8 8 8
-0.224276 -0.670679 -0.112007 15 15 15
-0.226009 -0.675861 -0.087502 12 12 12
-0.217993 -0.651891 -0.060137 16 16 16
-0.206711 -0.618154 0.126697 17 17 17
-0.212825 -0.636437 -0.035170 11 11 11
-0.213836 -0.639458 0.155666 12 12 12
-0.216890 -0.648592 -0.011937 20 20 20
-0.218109 -0.652237 0.184279 7 7 7
-0.252807 -0.738389 -0.209126 3 3 3
-0.246811 -0.720877 -0.175912 5 5 5
-0.196672 -0.574432 0.031820 13 13 13
-0.232115 -0.677953 -0.139291 9 9 9
-0.229069 -0.669057 -0.112007 15 15 15
-0.228910 -0.668592 -0.086771 12 12 12
-0.222007 -0.648430 -0.059963 16 16 16
-0.211130 -0.616659 0.126697 17 17 17
-0.217374 -0.634898 -0.035170 11 11 11
-0.202625 -0.591820 0.144419 14 14 14
-0.217639 -0.635673 -0.011728 21 21 21
-0.217765 -0.636038 0.180138 8 8 8
-0.247801 -0.723768 -0.204985 3 3 3
-0.249336 -0.728251 -0.177711 5 5 5
-0.235931 -0.689098 -0.141580 9 9 9
-0.234828 -0.685877 -0.114823 14 14 14
-0.228910 -0.668592 -0.086771 12 12 12
-0.879806 -2.569703 0.430195 1 1 1
-0.212972 -0.622040 -0.057523 18 18 18
-0.211130 -0.616659 0.126697 17 17 17
-0.212199 -0.619781 -0.034332 12 12 12
-0.207044 -0.604725 0.147568 13 13 13
-0.210514 -0.614862 -0.011344 22 22 22
-0.212759 -0.621417 0.175997 8 8 8
-0.247616 -0.707477 -0.200844 3 3 3
-0.254287 -0.726537 -0.177711 5 5 5
-0.241913 -0.691182 -0.142344 9 9 9
-0.242754 -0.693585 -0.116387 14 14 14
-0.234767 -0.670765 -0.087258 12 12 12
-0.893362 -2.552468 0.428318 1 1 1
-0.213910 -0.611174 -0.056651 18 18 18
-0.215322 -0.615207 0.126697 17 17 17
-0.221691 -0.633404 -0.035170 11 11 11
-0.208580 -0.595945 0.145768 13 13 13
-0.222622 -0.636064 -0.011763 21 21 21
-0.211878 -0.605367 0.171856 8 8 8
-0.256551 -0.733005 -0.208091 3 3 3
-0.249137 -0.711823 -0.174112 6 6 6
-0.209814 -0.599471 0.033286 12 12 12
-0.239319 -0.683770 -0.140817 9 9 9
-0.238839 -0.682398 -0.114510 14 14 14
-0.238702 -0.682007 -0.088721 12 12 12
-0.888141 -2.537552 0.425815 1 1 1
-0.224441 -0.641262 -0.059440 16 16 16
-0.215322 -0.615207 0.126697 17 17 17
-0.213086 -0.608820 0.148918 13 13 13
-0.223943 -0.639839 -0.011833 20 20 20
-0.213154 -0.609014 0.172891 8 8 8
-0.261662 -0.731196 -0.208091 3 3 3
-0.246878 -0.689883 -0.169163 6 6 6
-0.244087 -0.682082 -0.140817 9 9 9
-0.243597 -0.680714 -0.114510 14 14 14
-0.246133 -0.687800 -0.089696 11 11 11
-0.904504 -2.527570 0.425189 2 2 2
-0.227570 -0.635928 -0.059092 17 17 17
-0.212997 -0.595205 0.122881 17 17 17
-0.235528 -0.658167 -0.036635 10 10 10
-0.213392 -0.596309 0.146218 27 27 27
-0.239185 -0.668384 -0.012391 18 18 18
-0.216099 -0.603873 0.171856 8 8 8
-0.270124 -0.754841 -0.214820 3 3 3
-0.256727 -0.717405 -0.175912 5 5 5
-0.204573 -0.571665 0.031820 13 13 13
-0.679341 -1.898370 -0.391922 1 1 1
-0.717480 -2.004945 -0.337273 1 1 1
-0.767827 -2.145638 -0.279812 1 1 1
-0.900510 -2.516411 0.423312 3 3 3
-0.804886 -2.249196 -0.208999 1 1 1
-0.219612 -0.613689 0.126697 17 17 17
-0.869436 -2.429578 -0.135236 1 1 1
-0.213392 -0.596309 0.146218 27 27 27
-0.227057 -0.634494 -0.011763 21 21 21
-0.212844 -0.594779 0.169268 9 9 9
-0.281754 -0.771179 -0.219996 2 2 2
-0.655370 -1.793793 -0.440904 3 3 3
-0.208360 -0.570296 0.031820 13 13 13
-0.679789 -1.860630 -0.385053 1 1 1
-0.728050 -1.992721 -0.336021 2 2 2
-0.767054 -2.099478 -0.274450 2 2 2
-0.918535 -2.514094 0.423937 3 3 3
-0.808846 -2.213866 -0.206210 1 1 1
-0.212897 -0.582715 0.120591 18 18 18
-0.863598 -2.363727 -0.131887 1 1 1
-0.217342 -0.594880 0.146218 41 41 41
-0.929843 -2.545045 -0.047296 1 1 1
-0.220099 -0.602427 0.171856 8 8 8
-0.622510 -1.703851 -0.486062 11 11 11
-0.656039 -1.795623 -0.441354 9 9 9
-0.224810 -0.615319 0.034332 12 12 12
-0.681811 -1.866162 -0.386197 7 7 7
-0.723304 -1.979733 -0.333831 6 6 6
-0.766373 -2.097614 -0.274206 6 6 6
-0.921247 -2.521516 0.425189 3 3 3
-0.807478 -2.210123 -0.205862 4 4 4
-0.223677 -0.612219 0.126697 17 17 17
-0.860171 -2.354347 -0.131363 3 3 3
-0.218680 -0.598541 0.147118 41 41 41
-0.917491 -2.511236 -0.046668 1 1 1
-0.219436 -0.600612 0.171338 26 26 26
-0.631011 -1.690415 -0.483474 17 17 17
-0.663107 -1.776394 -0.437755 15 15 15
-0.229100 -0.613735 0.034332 12 12 12
-0.694136 -1.859518 -0.385816 9 9 9
-0.732963 -1.963532 -0.331954 11 11 11
-0.780304 -2.090353 -0.273962 10 10 10
-0.944354 -2.529828 0.427692 3 3 3
-0.821494 -2.200699 -0.205513 7 7 7
-0.879380 -2.355769 -0.131782 7 7 7
-0.222171 -0.595174 0.146668 41 41 41
-0.947588 -2.538492 -0.047296 1 1 1
-0.221597 -0.593636 0.169785 35 35 35
-0.633038 -1.695844 -0.485027 23 23 23
-0.662425 -1.774569 -0.437305 20 20 20
-0.229100 -0.613735 0.034332 12 12 12
-0.696195 -1.865036 -0.386961 15 15 15
-0.735726 -1.970934 -0.333205 19 19 19
-0.779609 -2.088493 -0.273719 23 23 23
-0.947809 -2.539081 0.429256 3 3 3
-0.824282 -2.208165 -0.206210 12 12 12
-0.873793 -2.340800 -0.130945 11 11 11
-0.222853 -0.597000 0.147118 41 41 41
-0.222273 -0.595446 0.170303 35 35 35
-0.645846 -1.693076 -0.485545 25 25 25
-0.676496 -1.773424 -0.438205 22 22 22
-0.251994 -0.660598 0.037054 10 10 10
-0.710223 -1.861840 -0.387342 23 23 23
-0.749811 -1.965619 -0.333205 21 21 21
-0.788874 -2.068023 -0.271769 19 19 19
-0.964545 -2.528543 0.428630 2 2 2
-0.837931 -2.196626 -0.205688 14 14 14
-0.232309 -0.608996 0.126697 17 17 17
-0.888385 -2.328889 -0.130631 11 11 11
-0.227814 -0.597211 0.147568 40 40 40
-0.229282 -0.601060 0.172373 35 35 35
-0.638960 -1.675026 -0.480368 27 27 27
-0.676496 -1.773424 -0.438205 23 23 23
-0.226367 -0.593419 0.033286 12 12 12
-0.705325 -1.849000 -0.384671 24 24 24
-0.749811 -1.965619 -0.333205 21 21 21
-0.989807 -2.594766 0.340990 1 1 1
-0.790289 -2.071733 -0.272256 19 19 19
-0.964545 -2.528543 0.428630 3 3 3
-0.834381 -2.187318 -0.204816 14 14 14
-0.232309 -0.608996 0.126697 17 17 17
-0.885537 -2.321425 -0.130212 11 11 11
-0.227814 -0.597211 0.147568 54 54 54
-0.225151 -0.590230 0.169268 27 27 27
-0.650347 -1.670638 -0.480368 24 24 24
-0.689258 -1.770595 -0.438655 24 24 24
-0.226054 -0.580697 0.032658 13 13 13
-0.720031 -1.849645 -0.385816 26 26 26
-0.761740 -1.956788 -0.332580 22 22 22
-1.003846 -2.578719 0.339772 1 1 1
-0.805093 -2.068155 -0.272500 19 19 19
-0.986750 -2.534804 0.430821 3 3 3
-0.849250 -2.181588 -0.204816 14 14 14
-0.236449 -0.607401 0.126697 17 17 17
-0.907115 -2.330233 -0.131049 8 8 8
-0.232580 -0.597462 0.148018 54 54 54
-0.227061 -0.583283 0.167715 36 36 36
-0.651749 -1.674238 -0.481403 25 25 25
-0.215449 -0.553453 0.010367 21 21 21
-0.685724 -1.761515 -0.436405 24 24 24
-0.234748 -0.603032 0.033914 12 12 12
-0.721455 -1.853304 -0.386579 26 26 26
-0.758873 -1.949425 -0.331328 22 22 22
-1.003125 -2.576869 0.339528 1 1 1
-0.806533 -2.071855 -0.272987 16 16 16
-0.990333 -2.544009 0.432385 4 4 4
-0.849973 -2.183444 -0.204990 17 17 17
-0.236449 -0.607401 0.126697 17 17 17
-0.905665 -2.326510 -0.130840 2 2 2
-0.229753 -0.590198 0.146218 41 41 41
-0.234770 -0.603086 0.173409 34 34 34
-0.665853 -1.674917 -0.482956 23 23 23
-0.234178 -0.589062 0.011065 19 19 19
-0.695431 -1.749319 -0.434605 24 24 24
-0.733248 -1.844445 -0.385816 26 26 26
-1.042223 -2.621655 0.246825 1 1 1
-0.774263 -1.947616 -0.331954 22 22 22
-1.018606 -2.562247 0.338553 5 5 5
-0.817671 -2.056807 -0.271769 13 13 13
-1.009242 -2.538692 0.432698 4 4 4
-0.867047 -2.181009 -0.205339 15 15 15
-0.922290 -2.319970 -0.130840 1 1 1
-0.238290 -0.599404 0.148918 40 40 40
-0.240088 -0.603928 -0.011344 22 22 22
-0.238366 -0.599595 0.172891 34 34 34
-0.665853 -1.674917 -0.482956 21 21 21
-0.244520 -0.615077 0.011553 18 18 18
-0.696871 -1.752941 -0.435505 23 23 23
-0.730347 -1.837147 -0.384289 26 26 26
-1.042223 -2.621655 0.246825 1 1 1
-0.775723 -1.951287 -0.332580 21 21 21
-1.022273 -2.571470 0.339772 5 5 5
-0.817671 -2.056807 -0.271769 19 19 19
-1.010702 -2.542364 0.433323 4 4 4
-0.866311 -2.179158 -0.205165 14 14 14
-0.999422 -2.513991 0.525870 1 1 1
-0.233970 -0.588539 0.146218 55 55 55
-0.244520 -0.615077 -0.011553 21 21 21
-0.234084 -0.588824 0.169785 53 53 53
-0.676078 -1.666648 -0.481921 23 23 23
-0.240540 -0.592972 0.011170 19 19 19
-0.711290 -1.753451 -0.436855 24 24 24
-0.743155 -1.832004 -0.384289 26 26 26
-1.052262 -2.594006 0.244908 2 2 2
-0.789326 -1.945824 -0.332580 22 22 22
-1.046169 -2.578987 0.341722 5 5 5
-0.831264 -2.049209 -0.271525 18 18 18
-1.029911 -2.538907 0.433949 4 4 4
-0.877010 -2.161979 -0.204119 13 13 13
-1.016211 -2.505134 0.525488 1 1 1
-0.241736 -0.595920 0.148468 54 54 54
-0.244298 -0.602237 -0.011344 22 22 22
-0.240367 -0.592546 0.171338 35 35 35
-0.673899 -1.661277 -0.480368 18 18 18
-0.239037 -0.589266 0.011100 19 19 19
-0.713487 -1.758868 -0.438205 23 23 23
-0.228234 -0.562637 0.031820 13 13 13
-0.743155 -1.832004 -0.384289 26 26 26
-1.056007 -2.603237 0.245779 2 2 2
-0.787098 -1.940333 -0.331641 23 23 23
-1.048408 -2.584505 0.342453 5 5 5
-0.834249 -2.056567 -0.272500 16 16 16
-1.032139 -2.544398 0.434888 4 4 4
-0.873265 -2.152748 -0.203247 3 3 3
-0.835403 -2.059413 0.431992 1 1 1
-0.241736 -0.595920 0.148468 40 40 40
-0.242795 -0.598531 -0.011274 22 22 22
-0.240367 -0.592546 0.171338 26 26 26
-0.691390 -1.670813 -0.484509 9 9 9
-0.233969 -0.565410 0.010681 20 20 20
-0.721278 -1.743040 -0.435505 16 16 16
-0.261176 -0.631159 0.035798 11 11 11
-0.758929 -1.834027 -0.385816 22 22 22
-1.071869 -2.590278 0.245256 1 1 1
-0.796849 -1.925664 -0.330077 16 16 16
-1.066425 -2.577123 0.342453 1 1 1
-0.850863 -2.056196 -0.273231 12 12 12
-1.050632 -2.538956 0.435201 1 1 1
-0.849760 -2.053530 0.431992 1 1 1
-0.255067 -0.616395 -0.034960 11 11 11
-0.241420 -0.583414 0.145768 27 27 27
-0.255378 -0.617147 -0.011658 21 21 21
-0.242282 -0.585498 0.169785 44 44 44
-0.686958 -1.660102 -0.481403 16 16 16
-0.234734 -0.567258 0.010716 20 20 20
-0.723514 -1.748442 -0.436855 10 10 10
-0.238266 -0.575794 0.032658 13 13 13
-0.755176 -1.824957 -0.383908 6 6 6
-0.861609 -2.082164 0.197146 3 3 3
-0.797604 -1.927489 -0.330390 6 6 6
-1.065666 -2.575289 0.342209 2 2 2
-0.844791 -2.041522 -0.271281 4 4 4
-0.854252 -2.064385 0.353855 1 1 1
-0.946932 -2.288355 -0.216669 1 1 1
-0.833996 -2.015435 0.423978 1 1 1
-0.252012 -0.609013 -0.034542 12 12 12
-0.245890 -0.594218 0.148468 13 13 13
-0.254614 -0.615299 -0.011623 21 21 21
-0.253362 -0.612274 0.177550 33 33 33
-0.701706 -1.664410 -0.483992 23 23 23
-0.241598 -0.573059 0.010855 20 20 20
-0.734337 -1.741810 -0.436405 16 16 16
-0.246735 -0.585243 0.033286 12 12 12
-0.771076 -1.828954 -0.385816 13 13 13
-0.862241 -2.045194 0.194183 11 11 11
-0.818044 -1.940359 -0.333518 12 12 12
-0.889930 -2.110870 0.281274 1 1 1
-0.859084 -2.037703 -0.271525 12 12 12
-0.849507 -2.014988 0.346346 1 1 1
-0.849633 -2.015286 0.425122 1 1 1
-0.259925 -0.616530 -0.035065 11 11 11
-0.239227 -0.567435 0.142169 14 14 14
-0.249367 -0.591485 -0.011204 23 23 23
-0.251413 -0.596340 0.173409 25 25 25
-0.694201 -1.646609 -0.478815 22 22 22
-0.241598 -0.573059 0.010855 20 20 20
-0.737365 -1.748992 -0.438205 22 22 22
-0.274667 -0.651497 0.037054 10 10 10
-0.771076 -1.828954 -0.385816 20 20 20
-0.849857 -2.015819 0.191394 17 17 17
-0.815742 -1.934898 -0.332580 20 20 20
-0.894557 -2.121845 0.282737 8 8 8
-0.855999 -2.030386 -0.270550 9 9 9
-0.847972 -2.011348 0.345720 1 1 1
-0.860310 -2.040613 0.430465 1 1 1
-0.260701 -0.618370 -0.035170 11 11 11
-1.056839 -2.506769 0.628063 1 1 1
-0.252474 -0.598856 -0.011344 22 22 22
-1.030419 -2.444102 0.710717 1 1 1
-0.704153 -1.638173 -0.477780 19 19 19
-0.746479 -1.736640 -0.436405 23 23 23
-0.307603 -0.715621 0.040822 8 8 8
-0.784601 -1.825330 -0.386197 22 22 22
-0.822989 -1.914638 -0.330077 22 22 22
-0.875640 -2.037127 -0.272256 2 2 2
-0.863554 -2.009009 0.346346 1 1 1
-0.247843 -0.576593 -0.054908 19 19 19
-1.062157 -2.471049 0.522817 1 1 1
-0.266589 -0.620205 -0.035379 11 11 11
-1.065079 -2.477846 0.622665 1 1 1
-0.261387 -0.608102 -0.011553 21 21 21
-1.049745 -2.442173 0.712270 2 2 2
-0.712545 -1.657696 -0.483474 15 15 15
-0.740322 -1.722318 -0.432806 20 20 20
-0.784601 -1.825330 -0.386197 24 24 24
-0.842666 -1.960415 0.186688 1 1 1
-0.821429 -1.911008 -0.329451 21 21 21
-0.855258 -1.989710 0.265919 1 1 1
-0.879560 -2.046246 -0.273475 1 1 1
-0.858873 -1.998120 0.344469 1 1 1
-0.269873 -0.627845 -0.059789 16 16 16
-0.862131 -2.005698 0.424359 1 1 1
-0.264223 -0.614700 -0.035065 11 11 11
-1.065079 -2.477846 0.622665 3 3 3
-0.247172 -0.575033 -0.010925 24 24 24
-1.055086 -2.454597 0.715893 3 3 3
-0.720511 -1.643708 -0.480886 15 15 15
-0.755757 -1.724115 -0.434605 17 17 17
-0.323942 -0.739011 0.042287 7 7 7
-0.792125 -1.807082 -0.383526 17 17 17
-0.869471 -1.983531 0.189477 7 7 7
-0.836669 -1.908700 -0.330077 16 16 16
-0.879038 -2.005356 0.268844 1 1 1
-0.930839 -2.123532 -0.284687 1 1 1
-0.875528 -1.997350 0.345407 1 1 1
-0.263161 -0.600351 -0.057348 18 18 18
-0.874885 -1.995882 0.423596 1 1 1
-0.254182 -0.579868 -0.033181 12 12 12
-1.084347 -2.473730 0.623564 3 3 3
-1.074950 -2.452292 0.717446 3 3 3
-0.722062 -1.647247 -0.481921 18 18 18
-0.759669 -1.733039 -0.436855 16 16 16
-0.304698 -0.695109 0.039775 8 8 8
-0.795278 -1.814274 -0.385053 17 17 17
-0.836669 -1.908700 -0.330077 10 10 10
-0.869474 -1.983539 0.265919 1 1 1
-0.859667 -1.961166 0.339150 1 1 1
-0.266360 -0.607650 -0.058046 17 17 17
-0.875673 -1.997680 0.423978 1 1 1
-0.267813 -0.610965 -0.034960 11 11 11
-1.081218 -2.466591 0.621765 4 4 4
-1.067194 -2.434599 0.712270 1 1 1
-0.730108 -1.635238 -0.479851 23 23 23
-0.772242 -1.729608 -0.437305 17 17 17
-0.338736 -0.758674 0.043544 6 6 6
-0.808409 -1.810612 -0.385434 14 14 14
-0.873205 -1.955735 0.187385 55 55 55
-0.849642 -1.902960 -0.330077 3 3 3
-0.873244 -1.955823 0.262994 3 3 3
-0.276783 -0.619918 -0.083359 13 13 13
-0.873802 -1.957073 0.339463 1 1 1
-0.267241 -0.598546 -0.057348 18 18 18
-0.885248 -1.982710 0.422069 1 1 1
-0.262195 -0.587243 -0.033704 12 12 12
-1.085270 -2.430704 0.614566 1 1 1
-1.044361 -2.339078 0.686388 1 1 1
-0.727745 -1.629946 -0.478298 24 24 24
-0.769859 -1.724269 -0.435955 23 23 23
-0.340364 -0.762321 0.043753 6 6 6
-0.808409 -1.810612 -0.385434 21 21 21
-0.864270 -1.935723 0.185467 51 51 51
-0.848031 -1.899353 -0.329451 1 1 1
-0.881337 -1.973949 0.265431 1 1 1
-0.280021 -0.627168 -0.084334 13 13 13
-0.873802 -1.957073 0.339463 1 1 1
-0.268866 -0.602185 -0.057697 17 17 17
-0.883647 -1.979124 0.421306 1 1 1
-0.270337 -0.605480 -0.034751 12 12 12
-1.055080 -2.363085 0.597470 1 1 1
-1.080222 -2.419397 -0.046249 1 1 1
-0.987654 -2.212069 0.649118 1 1 1
-0.743620 -1.635506 -0.481403 25 25 25
-0.779158 -1.713667 -0.434605 26 26 26
-1.226769 -2.698135 0.155333 1 1 1
-0.819090 -1.801493 -0.384671 23 23 23
-0.871653 -1.917099 0.184247 52 52 52
-0.871568 -1.916914 -0.333518 1 1 1
-0.267851 -0.589106 -0.079459 14 14 14
-0.882197 -1.940291 0.337586 1 1 1
-0.264712 -0.582203 -0.055954 18 18 18
-0.895473 -1.969489 0.420543 1 1 1
-1.041596 -2.290870 -0.131887 1 1 1
-1.038877 -2.284890 0.579474 1 1 1
-1.104942 -2.430192 -0.046598 1 1 1
-1.014682 -2.231674 0.656883 1 1 1
-0.743620 -1.635506 -0.481403 25 25 25
-0.779158 -1.713667 -0.434605 24 24 24
-0.819902 -1.803280 -0.385053 26 26 26
-0.869179 -1.911658 0.183724 51 51 51
-0.268672 -0.590913 -0.079703 14 14 14
-0.877292 -1.929501 0.335708 1 1 1
-0.271309 -0.596713 -0.057348 18 18 18
-0.885722 -1.948043 0.415964 1 1 1
-1.029196 -2.263597 -0.130317 2 2 2
-1.038877 -2.284890 0.579474 1 1 1
-1.099976 -2.419270 -0.046388 1 1 1
-1.012283 -2.226399 0.655330 1 1 1
-0.754208 -1.628522 -0.480886 22 22 22
-0.790283 -1.706418 -0.434156 25 25 25
-1.136461 -2.453902 0.141726 1 1 1
-0.821746 -1.774353 -0.380092 12 12 12
-0.882504 -1.905544 0.183724 51 51 51
-0.303831 -0.656047 -0.114510 14 14 14
-0.279465 -0.603434 -0.081652 14 14 14
-0.885760 -1.912575 0.333831 1 1 1
-0.285516 -0.616499 -0.059440 16 16 16
-0.893525 -1.929342 0.413292 1 1 1
-1.038259 -2.241858 -0.129479 4 4 4
-1.026959 -2.217459 0.564177 1 1 1
-1.106754 -2.389757 -0.045970 1 1 1
-1.117105 -2.412105 0.712270 1 1 1
-0.746901 -1.612745 -0.476227 24 24 24
-0.791102 -1.708186 -0.434605 24 24 24
-1.126389 -2.432154 0.140470 1 1 1
-0.818446 -1.767227 -0.378565 2 2 2
-0.874968 -1.889272 0.182156 52 52 52
-0.283908 -0.613028 -0.107001 17 17 17
-0.279465 -0.603434 -0.081652 14 14 14
-0.886590 -1.914367 0.334144 1 1 1
-0.268770 -0.580341 -0.055954 18 18 18
-0.933952 -2.016634 0.431992 1 1 1
-1.044134 -2.254545 -0.130212 8 8 8
-0.918858 -1.984042 0.504790 1 1 1
-1.098351 -2.371611 -0.045621 1 1 1
-1.141460 -2.464695 0.727799 5 5 5
-0.760614 -1.612733 -0.477780 23 23 23
-0.806333 -1.709672 -0.436405 24 24 24
-1.139934 -2.417005 0.140051 1 1 1
-0.851700 -1.805862 -0.388105 1 1 1
-0.883037 -1.872306 0.181110 53 53 53
-0.278069 -0.589591 -0.103247 18 18 18
-0.910287 -1.930084 0.262019 1 1 1
-0.276897 -0.587105 -0.079703 14 14 14
-0.903304 -1.915278 0.335395 1 1 1
-0.996922 -2.113777 -0.204467 1 1 1
-0.912835 -1.935486 0.415964 1 1 1
-1.056441 -2.239975 -0.129793 12 12 12
-0.928530 -1.968766 0.502541 1 1 1
-1.116587 -2.367503 -0.045690 1 1 1
-0.761438 -1.614480 -0.478298 26 26 26
-0.802177 -1.700859 -0.434156 24 24 24
-0.903086 -1.914817 0.110952 1 1 1
-0.883037 -1.872306 0.181110 49 49 49
-0.289866 -0.614604 -0.107627 16 16 16
-0.300606 -0.637377 -0.086527 12 12 12
-0.898248 -1.904558 0.333518 1 1 1
-0.990973 -2.101163 -0.203247 2 2 2
-0.897760 -1.903524 0.409094 1 1 1
-1.047921 -2.221910 -0.128746 11 11 11
-0.929362 -1.970529 0.502991 1 1 1
-1.118293 -2.371120 -0.045760 1 1 1
-1.166056 -2.472392 0.732458 5 5 5
-0.774363 -1.612608 -0.479333 25 25 25
-0.809814 -1.686434 -0.431906 16 16 16
-0.904328 -1.883260 0.109487 3 3 3
-0.362881 -0.755698 -0.162951 5 5 5
-0.898674 -1.871484 0.181633 51 51 51
-0.286454 -0.596539 -0.104811 17 17 17
-0.923739 -1.923682 0.262019 1 1 1
-0.268099 -0.558315 -0.076046 16 16 16
-0.914087 -1.903583 0.334457 1 1 1
-1.009930 -2.103174 -0.204119 4 4 4
-0.907628 -1.890131 0.407568 1 1 1
-1.064272 -2.216341 -0.128851 12 12 12
-0.932973 -1.942912 0.497592 1 1 1
-1.146938 -2.388492 -0.046249 1 1 1
-1.184960 -2.467674 0.733493 5 5 5
-0.777708 -1.619574 -0.481403 23 23 23
-0.817406 -1.702244 -0.435955 4 4 4
-0.899141 -1.872457 0.108859 6 6 6
-0.313591 -0.653051 -0.140817 9 9 9
-0.894361 -1.862503 0.180761 49 49 49
-0.292440 -0.609004 -0.107001 17 17 17
-0.923739 -1.923682 0.262019 1 1 1
-0.290441 -0.604841 -0.082384 14 14 14
-0.907247 -1.889337 0.331954 1 1 1
-1.012517 -2.108562 -0.204642 9 9 9
-0.911877 -1.898980 0.409476 1 1 1
-1.072917 -2.234345 -0.129898 11 11 11
-0.938034 -1.953452 0.500291 1 1 1
-1.133088 -2.359650 -0.045690 1 1 1
-1.174925 -2.446776 0.727282 13 13 13
-0.782209 -1.600220 -0.477262 26 26 26
-1.283016 -2.624758 0.050996 1 1 1
-0.912191 -1.866134 0.108859 13 13 13
-0.304347 -0.622625 -0.134711 10 10 10
-0.902967 -1.847264 0.179889 51 51 51
-0.301889 -0.617596 -0.108878 16 16 16
-0.937146 -1.917186 0.262019 1 1 1
-0.962427 -1.968906 -0.269088 1 1 1
-0.911740 -1.865210 0.328825 1 1 1
-1.023713 -2.094282 -0.203944 13 13 13
-0.925974 -1.894332 0.409858 1 1 1
-1.084981 -2.219623 -0.129479 12 12 12
-0.948226 -1.939853 0.498492 1 1 1
-1.153046 -2.358868 -0.045830 1 1 1
-1.186888 -2.428100 0.724176 8 8 8
-0.782209 -1.600220 -0.477262 27 27 27
-1.230326 -2.516965 0.048902 1 1 1
-0.821568 -1.680739 -0.431906 1 1 1
-0.916577 -1.875106 0.109382 29 29 29
-0.306072 -0.626152 -0.135474 10 10 10
-0.900342 -1.841894 0.179367 44 44 44
-0.293214 -0.599849 -0.105750 17 17 17
-0.916224 -1.874384 0.256169 1 1 1
-0.972017 -1.988523 -0.271769 2 2 2
-0.915210 -1.872309 0.330077 1 1 1
-1.023713 -2.094282 -0.203944 15 15 15
-0.926837 -1.896095 0.410239 1 1 1
-1.089367 -2.228595 -0.130003 12 12 12
-0.955072 -1.953859 0.502091 1 1 1
-1.154803 -2.362461 -0.045900 1 1 1
-1.182646 -2.419422 0.721587 10 10 10
-0.793362 -1.594721 -0.477262 26 26 26
-1.245195 -2.502943 0.048797 1 1 1
-0.926087 -1.861509 0.108963 45 45 45
-0.298193 -0.599392 -0.130132 11 11 11
-0.915842 -1.840916 0.179889 47 47 47
-0.285076 -0.573027 -0.101370 18 18 18
-0.915140 -1.839505 0.252270 1 1 1
