-1.329725 -1.046766 0.453451 100 100 100
-1.045202 -0.811619 -0.354582 100 100 100
-1.045581 -0.811913 0.023107 100 100 100
-1.037408 -0.805567 -0.303234 75 75 75
-1.041152 -0.808474 0.069083 66 66 66
-1.017223 -0.789893 -0.250341 78 78 78
-1.079529 -0.838274 0.119578 100 100 100
-1.032865 -0.802039 -0.207119 80 80 80
-1.418943 -1.101836 0.220584 100 100 100
-1.009723 -0.784069 -0.156968 99 99 99
-1.393276 -1.081905 0.279392 100 100 100
-1.015009 -0.788173 -0.112431 100 100 100
-1.373871 -1.066837 0.338114 100 100 100
-1.020645 -0.792549 -0.067723 77 77 77
-1.336009 -1.037436 0.390515 100 100 100
-1.021890 -0.793516 -0.022583 100 100 100
-1.330534 -1.033184 0.451380 100 100 100
-1.040624 -0.808064 -0.353029 100 100 100
-1.040843 -0.808234 0.023002 100 100 100
-1.034330 -0.803176 -0.302334 75 75 75
-1.045885 -0.812149 0.069397 68 68 68
-1.017223 -0.789893 -0.250341 76 76 76
-1.068513 -0.829720 0.118357 97 97 97
-1.032865 -0.802039 -0.207119 82 82 82
-1.431487 -1.111576 0.222533 100 100 100
-1.012859 -0.786504 -0.157455 100 100 100
-1.393276 -1.081905 0.279392 100 100 100
-1.008714 -0.783285 -0.111734 100 100 100
-1.376973 -1.069245 0.338877 100 100 100
-1.020645 -0.792549 -0.067723 82 82 82
-1.345244 -1.044607 0.393214 100 100 100
-1.020310 -0.792290 -0.022549 100 100 100
-1.330534 -1.033184 0.451380 100 100 100
-1.038570 -0.794909 -0.350441 100 100 100
-1.038520 -0.794870 0.022828 100 100 100
-1.049197 -0.803042 -0.305034 80 80 80
-1.057873 -0.809683 0.069816 68 68 68
-1.019595 -0.780385 -0.249578 78 78 78
-1.079026 -0.825873 0.118880 95 95 95
-1.022753 -0.782803 -0.203991 80 80 80
-1.439212 -1.101555 0.222533 100 100 100
-1.021478 -0.781827 -0.157943 100 100 100
-1.403933 -1.074553 0.280018 100 100 100
-1.010993 -0.773802 -0.111385 100 100 100
-1.382845 -1.058413 0.338495 100 100 100
-1.029325 -0.787832 -0.067932 75 75 75
-1.358694 -1.039928 0.395014 100 100 100
-1.032168 -0.790009 -0.022688 100 100 100
-1.337715 -1.023871 0.451380 100 100 100
-1.038570 -0.794909 -0.350441 100 100 100
-1.038520 -0.794870 0.022828 100 100 100
-1.033722 -0.791198 -0.300535 84 84 84
-1.056287 -0.808469 0.069711 66 66 66
-1.019595 -0.780385 -0.249578 76 76 76
-1.080608 -0.827084 0.119055 89 89 89
-1.025890 -0.785204 -0.204616 77 77 77
-1.428177 -1.093110 0.220827 100 100 100
-1.015173 -0.777001 -0.156968 99 99 99
-1.414913 -1.082957 0.282208 100 100 100
-1.017322 -0.778646 -0.112082 100 100 100
-1.378168 -1.054833 0.337350 100 100 100
-1.022981 -0.782977 -0.067513 100 100 100
-1.360242 -1.041112 0.395464 100 100 100
-1.036932 -0.793655 -0.022793 100 100 100
-1.340783 -1.026219 0.452416 100 100 100
-1.044231 -0.787456 -0.350441 100 100 100
-1.050568 -0.792235 0.022967 100 100 100
-1.036245 -0.781434 -0.299635 80 80 80
-1.058856 -0.798485 0.069502 64 64 64
-1.022018 -0.770705 -0.248815 73 73 73
-1.091271 -0.822929 0.119578 81 81 81
-1.031483 -0.777843 -0.204616 77 77 77
-1.437548 -1.084057 0.221071 100 100 100
-1.011197 -0.762545 -0.155505 99 99 99
-1.421049 -1.071615 0.281895 100 100 100
-1.021277 -0.770147 -0.111908 100 100 100
-1.388816 -1.047308 0.338114 100 100 100
-1.025368 -0.773231 -0.067304 75 75 75
-1.358321 -1.024312 0.392765 100 100 100
-1.047375 -0.789827 -0.022898 100 100 100
-1.351177 -1.018925 0.453451 100 100 100
-1.038062 -0.782804 -0.348370 100 100 100
-1.048971 -0.791031 0.022932 100 100 100
-1.034689 -0.780261 -0.299185 76 76 76
-1.058856 -0.798485 0.069502 64 64 64
-1.012613 -0.763613 -0.246525 73 73 73
-1.131041 -0.852919 0.123935 92 92 92
-1.028328 -0.775464 -0.203991 82 82 82
-1.443888 -1.088838 0.222046 100 100 100
-1.008027 -0.760155 -0.155018 100 100 100
-1.411586 -1.064479 0.280018 100 100 100
-1.026049 -0.773745 -0.112431 100 100 100
-1.391951 -1.049672 0.338877 100 100 100
-1.022179 -0.770826 -0.067095 73 73 73
-1.353654 -1.020792 0.391415 100 100 100
-1.034602 -0.780195 -0.022618 100 100 100
-1.351177 -1.018925 0.453451 100 100 100
-1.030963 -0.766499 -0.344229 100 100 100
-1.055936 -0.785065 0.022967 100 100 100
-1.033721 -0.768549 -0.297385 76 76 76
-1.061061 -0.788876 0.069293 66 66 66
-1.014636 -0.754360 -0.245762 67 67 67
-1.319095 -0.980718 0.143807 100 100 100
-1.033583 -0.768446 -0.203991 80 80 80
-1.457638 -1.083722 0.223021 100 100 100
-1.019550 -0.758013 -0.155993 99 99 99
-1.421969 -1.057203 0.280643 100 100 100
-1.021699 -0.759611 -0.111385 98 98 98
-1.399063 -1.040173 0.338877 100 100 100
-1.033813 -0.768617 -0.067513 100 100 100
-1.366826 -1.016205 0.393214 100 100 100
-1.031864 -0.767169 -0.022444 100 100 100
-1.351880 -1.005093 0.451380 100 100 100
-1.024762 -0.761888 -0.342159 100 100 100
-1.046307 -0.777907 0.022758 100 100 100
-1.036848 -0.770874 -0.298285 76 76 76
-1.069075 -0.794834 0.069816 68 68 68
-1.017787 -0.756703 -0.246525 67 67 67
-1.459798 -1.085328 0.159146 90 90 90
-1.024072 -0.761375 -0.202113 70 70 70
-1.460824 -1.086091 0.223508 100 100 100
-1.022736 -0.760382 -0.156480 100 100 100
-1.428310 -1.061918 0.281895 100 100 100
-1.021699 -0.759611 -0.111385 98 98 98
-1.399063 -1.040173 0.338877 100 100 100
-1.033813 -0.768617 -0.067513 100 100 100
-1.379337 -1.025507 0.396814 100 100 100
-1.038284 -0.771941 -0.022583 100 100 100
-1.354981 -1.007399 0.452416 100 100 100
-1.030056 -0.754716 -0.342159 100 100 100
-1.051713 -0.770583 0.022758 100 100 100
-1.029629 -0.754403 -0.294686 69 69 69
-1.072987 -0.786171 0.069711 66 66 66
-1.019878 -0.747258 -0.245762 69 69 69
-1.489840 -1.091596 0.161587 100 100 100
-1.026175 -0.751872 -0.201488 75 75 75
-1.458763 -1.068827 0.222046 100 100 100
-1.021614 -0.748531 -0.155505 100 100 100
-1.442063 -1.056590 0.283146 100 100 100
-1.023763 -0.750105 -0.111036 98 98 98
-1.403124 -1.028060 0.338114 100 100 100
-1.032709 -0.756660 -0.067095 75 75 75
-1.386463 -1.015852 0.396814 100 100 100
-1.050100 -0.769401 -0.022723 100 100 100
-1.365097 -1.000198 0.453451 100 100 100
-1.030056 -0.754716 -0.342159 100 100 100
-1.058165 -0.775311 0.022898 100 100 100
-1.020198 -0.747492 -0.291986 65 65 65
-1.064931 -0.780268 0.069188 100 100 100
-1.019878 -0.747258 -0.245762 71 71 71
-1.496269 -1.096307 0.162284 100 100 100
-1.026175 -0.751872 -0.201488 77 77 77
-1.452358 -1.064134 0.221071 100 100 100
-1.015209 -0.743838 -0.154530 100 100 100
-1.442063 -1.056590 0.283146 100 100 100
-1.030191 -0.754815 -0.111734 100 100 100
-1.404707 -1.029220 0.338495 100 100 100
-1.037543 -0.760201 -0.067409 73 73 73
-1.372315 -1.005487 0.392765 100 100 100
-1.050100 -0.769401 -0.022723 100 100 100
-1.371330 -1.004765 0.455522 100 100 100
-1.028905 -0.743162 -0.340088 100 100 100
-1.069902 -0.772774 0.023037 100 100 100
-1.028421 -0.742813 -0.292886 73 73 73
-1.068598 -0.771832 0.069083 66 66 66
-1.018574 -0.735701 -0.244236 67 67 67
-1.506926 -1.088430 0.162633 100 100 100
-1.031269 -0.744870 -0.201488 73 73 73
-1.472441 -1.063522 0.223021 100 100 100
-1.020249 -0.736910 -0.154530 100 100 100
-1.439613 -1.039810 0.281269 100 100 100
-1.035305 -0.747785 -0.111734 96 96 96
-1.419638 -1.025383 0.340403 100 100 100
-1.039455 -0.750782 -0.067199 73 73 73
-1.387026 -1.001828 0.395014 100 100 100
-1.042344 -0.752869 -0.022444 100 100 100
-1.378138 -0.995408 0.455522 100 100 100
-1.013244 -0.731851 -0.334912 100 100 100
-1.069902 -0.772774 0.023037 100 100 100
-1.030001 -0.743954 -0.293336 62 62 62
-1.075075 -0.776510 0.069502 100 100 100
-1.009025 -0.728803 -0.241946 67 67 67
-1.500466 -1.083763 0.161935 100 100 100
-1.031269 -0.744870 -0.201488 73 73 73
-1.478878 -1.068171 0.223996 100 100 100
-1.020249 -0.736910 -0.154530 100 100 100
-1.444417 -1.043280 0.282208 100 100 100
-1.019154 -0.736119 -0.109991 100 100 100
-1.416455 -1.023084 0.339640 100 100 100
-1.042693 -0.753121 -0.067409 73 73 73
-1.387026 -1.001828 0.395014 100 100 100
-1.045586 -0.755211 -0.022514 100 100 100
-1.371874 -0.990883 0.453451 100 100 100
-1.012033 -0.720279 -0.332841 98 98 98
-1.068754 -0.760647 0.022898 100 100 100
-1.028819 -0.732225 -0.291537 60 60 60
-1.082097 -0.770144 0.069607 100 100 100
-1.014089 -0.721741 -0.241946 67 67 67
-1.507995 -1.073262 0.161935 100 100 100
-1.023569 -0.728489 -0.198985 75 75 75
-1.483065 -1.055518 0.223508 100 100 100
-1.028603 -0.732072 -0.155018 100 100 100
-1.456494 -1.036607 0.283146 100 100 100
-1.027515 -0.731297 -0.110339 100 100 100
-1.420364 -1.010893 0.338877 100 100 100
-1.051180 -0.748140 -0.067618 100 100 100
-1.403512 -0.998900 0.397713 100 100 100
-1.050833 -0.747893 -0.022514 100 100 100
-1.378758 -0.981282 0.453451 100 100 100
-1.018329 -0.724759 -0.334912 98 98 98
-1.058979 -0.753690 0.022688 100 100 100
-1.020881 -0.726575 -0.289287 69 69 69
-1.088606 -0.774776 0.070026 100 100 100
-1.017288 -0.724018 -0.242709 69 69 69
-1.511242 -1.075572 0.162284 100 100 100
-1.020350 -0.726198 -0.198359 73 73 73
-1.473361 -1.048612 0.222046 100 100 100
-1.028603 -0.732072 -0.155018 99 99 99
-1.459712 -1.038898 0.283772 100 100 100
-1.027515 -0.731297 -0.110339 100 100 100
-1.417165 -1.008616 0.338114 100 100 100
-1.038162 -0.738875 -0.066781 71 71 71
-1.405100 -1.000030 0.398163 100 100 100
-1.060608 -0.754850 -0.022723 100 100 100
-1.378758 -0.981282 0.453451 100 100 100
-1.017162 -0.713018 -0.332841 98 98 98
-1.077445 -0.755276 0.022967 100 100 100
-1.014884 -0.711421 -0.286138 59 59 59
-1.087580 -0.762381 0.069607 100 100 100
-1.016012 -0.712212 -0.241183 69 69 69
-1.525426 -1.069305 0.162981 100 100 100
-1.031991 -0.723413 -0.199610 70 70 70
-1.487329 -1.042600 0.223021 100 100 100
-1.024062 -0.717856 -0.153555 100 100 100
-1.467109 -1.028426 0.283772 100 100 100
-1.042510 -0.730787 -0.111385 98 98 98
-1.433992 -1.005211 0.340403 100 100 100
-1.049965 -0.736013 -0.067199 73 73 73
-1.402646 -0.983238 0.395464 100 100 100
-1.065982 -0.747241 -0.022723 100 100 100
-1.395236 -0.978044 0.456557 100 100 100
-1.020325 -0.715236 -0.333877 100 100 100
-1.083994 -0.759867 0.023107 100 100 100
-1.021267 -0.715896 -0.287937 59 59 59
-1.077767 -0.755502 0.068979 100 100 100
-1.009582 -0.707705 -0.239656 71 71 71
-1.527057 -1.070449 0.163156 100 100 100
-1.031991 -0.723413 -0.199610 75 75 75
-1.497082 -1.049437 0.224483 100 100 100
-1.024062 -0.717856 -0.153555 100 100 100
-1.457404 -1.021623 0.281895 100 100 100
-1.039247 -0.728500 -0.111036 96 96 96
-1.437207 -1.007465 0.341166 100 100 100
-1.046694 -0.733720 -0.066990 73 73 73
-1.404242 -0.984357 0.395914 100 100 100
-1.052883 -0.738058 -0.022444 100 100 100
-1.398399 -0.980261 0.457592 100 100 100
-1.010744 -0.698568 -0.329218 92 92 92
-1.079140 -0.745840 0.022898 100 100 100
-1.025992 -0.709107 -0.287937 60 60 60
-1.097542 -0.758558 0.069921 100 100 100
-1.011023 -0.698761 -0.238893 69 69 69
-1.521011 -1.051235 0.161761 100 100 100
-1.033516 -0.714307 -0.198985 75 75 75
-1.504009 -1.039485 0.224483 100 100 100
-1.025535 -0.708791 -0.153068 100 100 100
-1.467397 -1.014181 0.282521 100 100 100
-1.037500 -0.717060 -0.110339 100 100 100
-1.448702 -1.001260 0.342311 100 100 100
-1.054823 -0.729033 -0.067199 100 100 100
-1.409136 -0.973914 0.395464 100 100 100
-1.054465 -0.728785 -0.022374 100 100 100
-1.398513 -0.966572 0.455522 100 100 100
-1.010744 -0.698568 -0.329218 96 96 96
-1.069270 -0.739018 0.022688 100 100 100
-1.024389 -0.707999 -0.287487 65 65 65
-1.102471 -0.761964 0.070235 100 100 100
-1.014253 -0.700993 -0.239656 69 69 69
-1.524289 -1.053501 0.162110 100 100 100
-1.023766 -0.707568 -0.197107 75 75 75
-1.504009 -1.039485 0.224483 100 100 100
-1.028801 -0.711048 -0.153555 100 100 100
-1.473898 -1.018673 0.283772 100 100 100
-1.030944 -0.712529 -0.109642 100 100 100
-1.437397 -0.993446 0.339640 100 100 100
-1.061395 -0.733575 -0.067618 100 100 100
-1.417152 -0.979454 0.397713 100 100 100
-1.061045 -0.733333 -0.022514 100 100 100
-1.398513 -0.966572 0.455522 100 100 100
-1.012643 -0.688967 -0.328183 94 94 94
-1.081272 -0.735659 0.022828 100 100 100
-1.013439 -0.689509 -0.282988 58 58 58
-1.112980 -0.757233 0.070549 100 100 100
-1.016118 -0.691331 -0.238893 73 73 73
-1.536912 -1.045661 0.162633 100 100 100
-1.025658 -0.697822 -0.196482 73 73 73
-1.508306 -1.026198 0.223996 100 100 100
-1.033986 -0.703488 -0.153555 100 100 100
-1.484592 -1.010064 0.284398 100 100 100
-1.042728 -0.709436 -0.110339 100 100 100
-1.444640 -0.982883 0.339640 100 100 100
-1.056836 -0.719034 -0.066990 100 100 100
-1.427516 -0.971232 0.398613 100 100 100
-1.069698 -0.727785 -0.022583 100 100 100
-1.405561 -0.956294 0.455522 100 100 100
-1.015837 -0.691140 -0.329218 94 94 94
-1.084578 -0.737909 0.022898 100 100 100
-1.008606 -0.686220 -0.281639 59 59 59
-1.203802 -0.819025 0.076306 104 104 104
-1.012872 -0.689122 -0.238130 71 71 71
-1.546796 -1.052386 0.163678 100 100 100
-1.028925 -0.700044 -0.197107 75 75 75
-1.505023 -1.023965 0.223508 100 100 100
-1.027421 -0.699021 -0.152580 100 100 100
-1.491124 -1.014509 0.285649 100 100 100
-1.049317 -0.713919 -0.111036 98 98 98
-1.452756 -0.988405 0.341548 100 100 100
-1.053533 -0.716787 -0.066781 69 69 69
-1.419460 -0.965751 0.396364 100 100 100
-1.069698 -0.727785 -0.022583 100 100 100
-1.411950 -0.960641 0.457592 100 100 100
-1.020399 -0.684388 -0.329218 96 96 96
-1.096091 -0.735155 0.023037 100 100 100
-1.013135 -0.679516 -0.281639 62 62 62
-1.531000 -1.026851 0.096612 100 100 100
-1.014159 -0.680202 -0.237366 73 73 73
-1.550432 -1.039884 0.163330 100 100 100
-1.033545 -0.693205 -0.197107 73 73 73
-1.521673 -1.020595 0.224971 100 100 100
-1.032034 -0.692192 -0.152580 100 100 100
-1.487977 -0.997995 0.283772 100 100 100
-1.050720 -0.704724 -0.110688 98 98 98
-1.464171 -0.982029 0.342693 100 100 100
-1.064899 -0.714234 -0.067199 100 100 100
-1.429070 -0.958486 0.397264 100 100 100
-1.071180 -0.718447 -0.022514 100 100 100
-1.421499 -0.953408 0.458627 100 100 100
-1.009168 -0.676855 -0.325594 98 98 98
-1.096091 -0.735155 0.023037 100 100 100
-1.021227 -0.684943 -0.283888 65 65 65
-1.572468 -1.054664 0.099229 100 100 100
-1.007637 -0.675828 -0.235840 78 78 78
-1.547123 -1.037665 0.162981 100 100 100
-1.030264 -0.691004 -0.196482 73 73 73
-1.524970 -1.022807 0.225458 100 100 100
-1.028737 -0.689980 -0.152093 100 100 100
-1.487977 -0.997995 0.283772 100 100 100
-1.040792 -0.698065 -0.109642 98 98 98
-1.473954 -0.988590 0.344983 100 100 100
-1.068216 -0.716459 -0.067409 100 100 100
-1.432307 -0.960657 0.398163 100 100 100
-1.064537 -0.713992 -0.022374 100 100 100
-1.415081 -0.949104 0.456557 100 100 100
-1.010645 -0.667664 -0.324559 100 100 100
-1.091186 -0.720872 0.022828 100 100 100
-1.025984 -0.677797 -0.283888 65 65 65
-1.593124 -1.052467 0.100066 100 100 100
-1.009054 -0.666613 -0.235077 76 76 76
-1.552667 -1.025740 0.162807 100 100 100
-1.025174 -0.677262 -0.194604 73 73 73
-1.535386 -1.014324 0.225946 100 100 100
-1.040154 -0.687158 -0.153068 100 100 100
-1.494908 -0.987583 0.283772 100 100 100
-1.045640 -0.690782 -0.109642 98 98 98
-1.470991 -0.971783 0.342693 100 100 100
-1.066526 -0.704581 -0.066990 73 73 73
-1.445483 -0.954931 0.399963 100 100 100
-1.079507 -0.713156 -0.022583 100 100 100
-1.421672 -0.939201 0.456557 100 100 100
-1.010645 -0.667664 -0.324559 100 100 100
-1.091186 -0.720872 0.022828 100 100 100
-1.009724 -0.667055 -0.279389 65 65 65
-1.598123 -1.055770 0.100380 100 100 100
-1.015606 -0.670941 -0.236603 71 71 71
-1.555992 -1.027937 0.163156 100 100 100
-1.025174 -0.677262 -0.194604 73 73 73
-1.535386 -1.014324 0.225946 100 100 100
-1.036841 -0.684970 -0.152580 100 100 100
-1.503149 -0.993027 0.285336 100 100 100
-1.045640 -0.690782 -0.109642 98 98 98
-1.461163 -0.965290 0.340403 100 100 100
-1.059861 -0.700177 -0.066571 100 100 100
-1.453613 -0.960302 0.402212 100 100 100
-1.079507 -0.713156 -0.022583 100 100 100
-1.424896 -0.941331 0.457592 100 100 100
-1.016901 -0.661645 -0.325077 96 96 96
-1.102897 -0.717599 0.022967 100 100 100
-1.014356 -0.659990 -0.279389 69 69 69
-1.595410 -1.038052 0.099752 100 100 100
-1.016975 -0.661693 -0.235840 76 76 76
-1.566470 -1.019222 0.163504 100 100 100
-1.029877 -0.670088 -0.194604 73 73 73
-1.532447 -0.997085 0.224483 100 100 100
-1.031615 -0.671219 -0.151118 100 100 100
-1.515012 -0.985741 0.286275 100 100 100
-1.060457 -0.689985 -0.110688 98 98 98
-1.474449 -0.959348 0.341930 100 100 100
-1.061375 -0.690582 -0.066362 100 100 100
-1.445580 -0.940565 0.398163 100 100 100
-1.084459 -0.705602 -0.022583 96 96 96
-1.434672 -0.933468 0.458627 100 100 100
-1.018520 -0.662699 -0.325594 98 98 98
-1.109601 -0.721961 0.023107 100 100 100
-1.011090 -0.657864 -0.278489 69 69 69
-1.597084 -1.039141 0.099857 100 100 100
-1.007101 -0.655269 -0.233550 78 78 78
-1.571480 -1.022482 0.164027 100 100 100
-1.026565 -0.667934 -0.193979 75 75 75
-1.542430 -1.003581 0.225946 100 100 100
-1.031615 -0.671219 -0.151118 100 100 100
-1.508389 -0.981432 0.285024 100 100 100
-1.057117 -0.687812 -0.110339 96 96 96
-1.481031 -0.963631 0.343456 100 100 100
-1.066397 -0.693850 -0.066676 100 100 100
-1.445580 -0.940565 0.398163 100 100 100
-1.074402 -0.699059 -0.022374 100 100 100
-1.441149 -0.937682 0.460698 100 100 100
-1.008369 -0.646368 -0.320936 96 96 96
-1.117857 -0.716550 0.023177 100 100 100
-1.018825 -0.653070 -0.279389 73 73 73
-1.607483 -1.030402 0.100066 100 100 100
-1.008232 -0.646280 -0.232787 78 78 78
-1.576726 -1.010686 0.163853 100 100 100
-1.031088 -0.660931 -0.193979 75 75 75
-1.555910 -0.997343 0.226921 100 100 100
-1.036159 -0.664181 -0.151118 100 100 100
-1.511708 -0.969010 0.284398 100 100 100
-1.048355 -0.671999 -0.108945 98 98 98
-1.490861 -0.955647 0.344219 100 100 100
-1.077821 -0.690887 -0.067095 100 100 100
-1.473277 -0.944375 0.404012 100 100 100
-1.079136 -0.691729 -0.022374 96 96 96
-1.437740 -0.921596 0.457592 100 100 100
-1.006743 -0.645325 -0.320418 98 98 98
-1.104388 -0.707917 0.022898 100 100 100
-1.018825 -0.653070 -0.279389 76 76 76
-1.607483 -1.030402 0.100066 100 100 100
-1.008232 -0.646280 -0.232787 82 82 82
-1.571694 -1.007461 0.163330 100 100 100
-1.017784 -0.652403 -0.191476 75 75 75
-1.559253 -0.999486 0.227408 100 100 100
-1.039502 -0.666324 -0.151605 100 100 100
-1.518360 -0.973274 0.285649 100 100 100
-1.045000 -0.669849 -0.108596 98 98 98
-1.484250 -0.951409 0.342693 100 100 100
-1.081184 -0.693042 -0.067304 100 100 100
-1.468355 -0.941220 0.402662 100 100 100
-1.082503 -0.693888 -0.022444 100 100 100
-1.437740 -0.921596 0.457592 100 100 100
-1.017758 -0.642406 -0.322489 98 98 98
-1.110995 -0.701257 0.022932 94 94 94
-1.015120 -0.640741 -0.277140 80 80 80
-1.628149 -1.027683 0.100904 100 100 100
-1.012720 -0.639226 -0.232787 76 76 76
-1.588798 -1.002845 0.164376 100 100 100
-1.018973 -0.643173 -0.190850 77 77 77
-1.552763 -0.980100 0.225458 100 100 100
-1.044128 -0.659051 -0.151605 100 100 100
-1.530129 -0.965813 0.286588 100 100 100
-1.056391 -0.666791 -0.109293 100 100 100
-1.490856 -0.941024 0.342693 100 100 100
-1.069106 -0.674817 -0.066257 100 100 100
-1.476538 -0.931987 0.403112 100 100 100
-1.090703 -0.688448 -0.022514 100 100 100
-1.447406 -0.913598 0.458627 100 100 100
-1.019392 -0.643437 -0.323006 96 96 96
-1.117759 -0.705526 0.023072 94 94 94
-1.006880 -0.635540 -0.274890 76 76 76
-1.618016 -1.021287 0.100276 100 100 100
-1.012720 -0.639226 -0.232787 82 82 82
-1.590483 -1.003908 0.164550 100 100 100
-1.022314 -0.645281 -0.191476 75 75 75
-1.556120 -0.982219 0.225946 100 100 100
-1.034056 -0.652693 -0.150143 100 100 100
-1.535141 -0.968976 0.287527 100 100 100
-1.056391 -0.666791 -0.109293 98 98 98
-1.497497 -0.945216 0.344219 100 100 100
-1.069106 -0.674817 -0.066257 100 100 100
-1.468299 -0.926786 0.400863 100 100 100
-1.090703 -0.688448 -0.022514 96 96 96
-1.453940 -0.917723 0.460698 100 100 100
-1.027252 -0.638165 -0.324041 92 92 92
-1.122779 -0.697510 0.023072 84 84 84
-1.013058 -0.629347 -0.275340 80 80 80
-1.626979 -1.010736 0.100380 100 100 100
-1.010597 -0.627818 -0.231261 82 82 82
-1.602703 -0.995655 0.165073 100 100 100
-1.030261 -0.640034 -0.192102 75 75 75
-1.573226 -0.977343 0.227408 100 100 100
-1.031956 -0.641087 -0.149168 100 100 100
-1.535323 -0.953797 0.286275 100 100 100
-1.064520 -0.661317 -0.109642 100 100 100
-1.507557 -0.936548 0.344983 100 100 100
-1.077301 -0.669257 -0.066467 100 100 100
-1.464961 -0.910085 0.398163 100 100 100
-1.088807 -0.676405 -0.022374 90 90 90
-1.460470 -0.907295 0.460698 100 100 100
-1.014124 -0.630009 -0.319900 92 92 92
-1.132970 -0.703841 0.023282 64 64 64
-1.019679 -0.633460 -0.277140 80 80 80
-1.628675 -1.011790 0.100485 100 100 100
-1.007262 -0.625746 -0.230497 85 85 85
-1.592549 -0.989347 0.164027 100 100 100
-1.030261 -0.640034 -0.192102 75 75 75
-1.573226 -0.977343 0.227408 100 100 100
-1.035328 -0.643182 -0.149656 99 99 99
-1.535323 -0.953797 0.286275 100 100 100
-1.050981 -0.652906 -0.108247 98 98 98
-1.510893 -0.938620 0.345746 100 100 100
-1.087480 -0.675581 -0.067095 100 100 100
-1.481514 -0.920369 0.402662 100 100 100
-1.088807 -0.676405 -0.022374 93 93 93
-1.460470 -0.907295 0.460698 100 100 100
-1.021794 -0.624930 -0.320936 89 89 89
-1.439806 -0.880587 0.029460 86 86 86
-1.024077 -0.626326 -0.277140 84 84 84
-1.644218 -1.005606 0.101008 100 100 100
-1.014956 -0.620748 -0.231261 82 82 82
-1.601116 -0.979245 0.164201 100 100 100
-1.024593 -0.626642 -0.190224 77 77 77
-1.586785 -0.970479 0.228383 100 100 100
-1.049954 -0.642153 -0.151118 100 100 100
-1.545315 -0.945116 0.286901 100 100 100
-1.055513 -0.645553 -0.108247 100 100 100
-1.510709 -0.923951 0.344219 100 100 100
-1.088762 -0.665888 -0.066885 100 100 100
-1.496216 -0.915087 0.404912 100 100 100
-1.096914 -0.670874 -0.022444 90 90 90
-1.463472 -0.895061 0.459663 100 100 100
-1.025090 -0.626946 -0.321971 82 82 82
-1.654754 -1.012049 0.033858 86 86 86
-1.010777 -0.618192 -0.273540 88 88 88
-1.647626 -1.007690 0.101218 100 100 100
-1.014956 -0.620748 -0.231261 85 85 85
-1.604516 -0.981324 0.164550 100 100 100
-1.024593 -0.626642 -0.190224 77 77 77
-1.580011 -0.966336 0.227408 100 100 100
-1.043180 -0.638010 -0.150143 100 100 100
-1.552056 -0.949239 0.288152 100 100 100
-1.062312 -0.649711 -0.108945 98 98 98
-1.507360 -0.921903 0.343456 100 100 100
-1.078539 -0.659636 -0.066257 100 100 100
-1.499541 -0.917121 0.405812 100 100 100
-1.100326 -0.672961 -0.022514 93 93 93
-1.470065 -0.899093 0.461733 100 100 100
-1.030989 -0.620951 -0.322489 68 68 68
-1.675308 -1.009016 0.034137 100 100 100
-1.014961 -0.611298 -0.273540 91 91 91
-1.644182 -0.990269 0.100590 100 100 100
-1.015794 -0.611799 -0.230497 82 82 82
-1.626519 -0.979631 0.166119 100 100 100
-1.032219 -0.621692 -0.190850 77 77 77
-1.589953 -0.957608 0.227896 100 100 100
-1.033895 -0.622701 -0.148193 100 100 100
-1.558481 -0.938653 0.288152 100 100 100
-1.063296 -0.640409 -0.108596 100 100 100
-1.516963 -0.913647 0.344219 100 100 100
-1.083004 -0.652279 -0.066257 100 100 100
-1.492394 -0.898849 0.402212 100 100 100
-1.108307 -0.667519 -0.022583 90 90 90
-1.479460 -0.891059 0.462768 100 100 100
-1.035953 -0.623941 -0.324041 43 43 43
-1.677021 -1.010048 0.034172 100 100 100
-1.018300 -0.613309 -0.274440 91 91 91
-1.640760 -0.988208 0.100380 100 100 100
-1.010748 -0.608760 -0.229352 89 89 89
-1.626519 -0.979631 0.166119 100 100 100
-1.028834 -0.619653 -0.190224 80 80 80
-1.589953 -0.957608 0.227896 100 100 100
-1.040697 -0.626798 -0.149168 100 100 100
-1.553405 -0.935595 0.287214 100 100 100
-1.066710 -0.642465 -0.108945 100 100 100
-1.527054 -0.919725 0.346509 100 100 100
-1.086426 -0.654340 -0.066467 100 100 100
-1.499071 -0.902871 0.404012 100 100 100
-1.098029 -0.661328 -0.022374 90 90 90
-1.482770 -0.893053 0.463804 100 100 100
-1.158271 -0.686638 -0.360794 35 35 35
-1.690912 -1.002394 0.034311 100 100 100
-1.025910 -0.608172 -0.275340 91 91 91
-1.657927 -0.982840 0.101008 100 100 100
-1.011596 -0.599687 -0.228589 89 89 89
-1.619607 -0.960124 0.164724 100 100 100
-1.036534 -0.614470 -0.190850 80 80 80
-1.610260 -0.954583 0.229846 100 100 100
-1.045047 -0.619517 -0.149168 100 100 100
-1.559898 -0.924728 0.287214 100 100 100
-1.060886 -0.628906 -0.107899 100 100 100
-1.540193 -0.913046 0.348036 100 100 100
-1.090968 -0.646739 -0.066467 100 100 100
-1.510367 -0.895365 0.405362 100 100 100
-1.107780 -0.656706 -0.022479 86 86 86
-1.478998 -0.876769 0.460698 100 100 100
-1.405879 -0.833423 -0.437922 41 41 41
-1.678871 -0.995256 0.034067 100 100 100
-1.025910 -0.608172 -0.275340 91 91 91
-1.661363 -0.984877 0.101218 100 100 100
-1.014974 -0.601689 -0.229352 90 90 90
-1.621321 -0.961140 0.164899 100 100 100
-1.029737 -0.610441 -0.189599 80 80 80
-1.617091 -0.958632 0.230821 100 100 100
-1.048462 -0.621542 -0.149656 100 100 100
-1.563297 -0.926742 0.287839 100 100 100
-1.054030 -0.624842 -0.107202 98 98 98
-1.533438 -0.909041 0.346509 100 100 100
-1.097840 -0.650813 -0.066885 100 100 100
-1.515396 -0.898346 0.406712 100 100 100
-1.111220 -0.658745 -0.022549 82 82 82
-1.482321 -0.878739 0.461733 100 100 100
-1.440030 -0.840137 -0.446722 47 47 47
-1.689233 -0.985527 0.034137 100 100 100
-1.016665 -0.593139 -0.271741 84 84 84
-1.680274 -0.980300 0.101950 100 100 100
-1.019149 -0.594589 -0.229352 93 93 93
-1.634875 -0.953814 0.165596 100 100 100
-1.030561 -0.601246 -0.188973 77 77 77
-1.606598 -0.937316 0.228383 100 100 100
-1.049347 -0.612206 -0.149168 100 100 100
-1.576554 -0.919788 0.289091 98 98 98
-1.061809 -0.619477 -0.107550 98 98 98
-1.536355 -0.896335 0.345746 100 100 100
-1.092006 -0.637094 -0.066257 100 100 100
-1.521630 -0.887745 0.406712 100 100 100
-1.122701 -0.655002 -0.022688 79 79 79
-1.495094 -0.872263 0.463804 100 100 100
-1.465059 -0.854740 -0.454486 53 53 53
-1.703051 -0.993588 0.034416 100 100 100
-1.013298 -0.591175 -0.270841 80 80 80
-1.663023 -0.970235 0.100904 100 100 100
-1.019149 -0.594589 -0.229352 93 93 93
-1.643480 -0.958834 0.166467 100 100 100
-1.030561 -0.601246 -0.188973 80 80 80
-1.610027 -0.939317 0.228871 100 100 100
-1.039059 -0.606204 -0.147706 100 100 100
-1.576554 -0.919788 0.289091 100 100 100
-1.072134 -0.625501 -0.108596 98 98 98
-1.543138 -0.900293 0.347272 100 100 100
-1.090281 -0.636088 -0.066153 100 100 100
-1.518264 -0.885781 0.405812 100 100 100
-1.119246 -0.652987 -0.022618 75 75 75
-1.498432 -0.874210 0.464839 100 100 100
-1.487744 -0.854109 -0.459663 61 61 61
-1.709946 -0.981675 0.034416 100 100 100
-1.020781 -0.586027 -0.271741 91 91 91
-1.669756 -0.958602 0.100904 100 100 100
-1.006249 -0.577685 -0.225536 95 95 95
-1.653590 -0.949321 0.166816 100 100 100
-1.038160 -0.596004 -0.189599 80 80 80
-1.623432 -0.932007 0.229846 100 100 100
-1.039823 -0.596959 -0.147218 100 100 100
-1.577797 -0.905808 0.288152 100 100 100
-1.073019 -0.616017 -0.108247 98 98 98
-1.563007 -0.897317 0.350325 100 100 100
-1.091231 -0.626472 -0.065943 100 100 100
-1.522721 -0.874189 0.405362 100 100 100
-1.108170 -0.636197 -0.022304 72 72 72
-1.507849 -0.865651 0.465874 100 100 100
-1.474341 -0.846415 -0.455522 61 61 61
-1.715148 -0.984661 0.034521 100 100 100
-1.027541 -0.589908 -0.273540 84 84 84
-1.680149 -0.964568 0.101532 100 100 100
-1.013060 -0.581595 -0.227063 95 95 95
-1.646678 -0.945353 0.166119 100 100 100
-1.038160 -0.596004 -0.189599 80 80 80
-1.633761 -0.937937 0.231308 100 100 100
-1.050152 -0.602889 -0.148681 99 99 99
-1.576084 -0.904825 0.287839 100 100 100
-1.066107 -0.612049 -0.107550 100 100 100
-1.559601 -0.895362 0.349562 100 100 100
-1.103355 -0.633433 -0.066676 100 100 100
-1.527791 -0.877100 0.406712 100 100 100
-1.115107 -0.640179 -0.022444 70 70 70
-1.501147 -0.861804 0.463804 100 100 100
-1.483579 -0.838002 -0.456557 28 28 28
-1.715016 -0.968730 0.034381 100 100 100
-1.035028 -0.584637 -0.274440 91 91 91
-1.693798 -0.956744 0.101950 100 100 100
-1.022224 -0.577405 -0.228208 98 98 98
-1.653238 -0.933834 0.166119 100 100 100
-1.035415 -0.584856 -0.188347 82 82 82
-1.631627 -0.921627 0.230089 98 98 98
-1.054335 -0.595543 -0.148681 99 99 99
-1.590962 -0.898657 0.289404 100 100 100
-1.070354 -0.604591 -0.107550 98 98 98
-1.565814 -0.884453 0.349562 100 100 100
-1.099056 -0.620803 -0.066153 100 100 100
-1.547451 -0.874080 0.410311 100 100 100
-1.126513 -0.636313 -0.022583 63 63 63
-1.510492 -0.853203 0.464839 100 100 100
-1.473486 -0.832301 -0.453451 18 18 18
-1.718499 -0.970697 0.034451 100 100 100
-1.021453 -0.576970 -0.270841 80 80 80
-1.697276 -0.958709 0.102160 100 100 100
-1.022224 -0.577405 -0.228208 100 100 100
-1.658442 -0.936774 0.166642 100 100 100
-1.031975 -0.582913 -0.187721 82 82 82
-1.628170 -0.919674 0.229602 98 98 98
-1.054335 -0.595543 -0.148681 100 100 100
-1.601282 -0.904487 0.291281 100 100 100
-1.070354 -0.604591 -0.107550 98 98 98
-1.555558 -0.878659 0.347272 100 100 100
-1.092100 -0.616874 -0.065734 100 100 100
-1.550845 -0.875997 0.411211 100 100 100
-1.136960 -0.642214 -0.022793 57 57 57
-1.513856 -0.855104 0.465874 100 100 100
-1.479261 -0.821994 -0.453451 16 16 16
-1.728729 -0.960618 0.034521 100 100 100
-1.023753 -0.568878 -0.270391 73 73 73
-1.693452 -0.941016 0.101532 100 100 100
-1.022798 -0.568347 -0.227444 98 98 98
-1.670166 -0.928076 0.167165 100 100 100
-1.036020 -0.575694 -0.187721 82 82 82
-1.634551 -0.908285 0.229602 98 98 98
-1.048056 -0.582383 -0.147218 100 100 100
-1.604104 -0.891367 0.290655 100 100 100
-1.078032 -0.599040 -0.107899 98 98 98
-1.575383 -0.875407 0.350325 100 100 100
-1.092888 -0.607295 -0.065525 100 100 100
-1.548405 -0.860416 0.408961 100 100 100
-1.141416 -0.634261 -0.022793 68 68 68
-1.526543 -0.848268 0.467945 100 100 100
-1.480949 -0.822932 -0.453969 13 13 13
-1.737469 -0.965475 0.034695 100 100 100
-1.023753 -0.568878 -0.270391 69 69 69
-1.698690 -0.943926 0.101846 100 100 100
-1.014217 -0.563579 -0.225536 95 95 95
-1.670166 -0.928076 0.167165 100 100 100
-1.046380 -0.581451 -0.189599 82 82 82
-1.638021 -0.910214 0.230089 100 100 100
-1.044586 -0.580454 -0.146731 96 96 96
-1.598924 -0.888488 0.289717 98 98 98
-1.074549 -0.597104 -0.107550 93 93 93
-1.582247 -0.879221 0.351852 100 100 100
-1.096379 -0.609235 -0.065734 100 100 100
-1.546702 -0.859469 0.408511 100 100 100
-1.676291 -0.931479 -0.033474 78 78 78
-1.526543 -0.848268 0.467945 100 100 100
-1.466316 -0.801455 -0.447757 12 12 12
-1.745922 -0.954281 0.034730 100 100 100
-1.034540 -0.565456 -0.272191 65 65 65
-1.706991 -0.933002 0.101950 100 100 100
-1.014681 -0.554601 -0.224773 93 93 93
-1.671360 -0.913527 0.166642 100 100 100
-1.046947 -0.572237 -0.188973 82 82 82
-1.654787 -0.904469 0.231552 100 100 100
-1.055580 -0.576956 -0.147706 99 99 99
-1.618954 -0.884883 0.292220 100 100 100
-1.071698 -0.585766 -0.106853 98 98 98
-1.591792 -0.870037 0.352615 100 100 100
-1.104111 -0.603482 -0.065943 100 100 100
-1.559504 -0.852389 0.410311 100 100 100
-1.759959 -0.961953 -0.035010 82 82 82
-1.525647 -0.833884 0.465874 100 100 100
-1.456145 -0.795896 -0.444651 12 12 12
-1.738903 -0.950444 0.034591 100 100 100
-1.041380 -0.569194 -0.273990 58 58 58
-1.710496 -0.934918 0.102160 100 100 100
-1.025018 -0.560251 -0.227063 93 93 93
-1.676605 -0.916393 0.167165 100 100 100
-1.033080 -0.564658 -0.186470 82 82 82
-1.654787 -0.904469 0.231552 100 100 100
-1.055580 -0.576956 -0.147706 96 96 96
-1.615488 -0.882988 0.291594 100 100 100
-1.068202 -0.583854 -0.106504 93 93 93
-1.588347 -0.868154 0.351852 100 100 100
-1.109369 -0.606355 -0.066257 100 100 100
-1.566344 -0.856128 0.412110 100 100 100
-1.766978 -0.965789 -0.035149 93 93 93
-1.525647 -0.833884 0.465874 100 100 100
-1.507609 -0.810407 -0.458627 22 22 22
-1.743734 -0.937335 0.034556 100 100 100
-1.028163 -0.552683 -0.269491 49 49 49
-1.720500 -0.924845 0.102369 100 100 100
-1.027175 -0.552152 -0.226681 98 98 98
-1.686471 -0.906553 0.167513 100 100 100
-1.040477 -0.559302 -0.187096 82 82 82
-1.650570 -0.887255 0.230089 100 100 100
-1.052588 -0.565813 -0.146731 96 96 96
-1.618133 -0.869818 0.290968 100 100 100
-1.075762 -0.578269 -0.106853 96 96 96
-1.587452 -0.853326 0.350325 100 100 100
-1.095983 -0.589139 -0.065211 100 100 100
-1.579149 -0.848862 0.413910 100 100 100
-1.787768 -0.961005 -0.035428 99 99 99
-1.541641 -0.828700 0.468980 100 100 100
-1.585882 -0.852482 -0.482439 39 39 39
-1.752541 -0.942069 0.034730 100 100 100
-1.024730 -0.550838 -0.268592 37 37 37
-1.720500 -0.924845 0.102369 100 100 100
-1.030633 -0.554011 -0.227444 100 100 100
-1.697001 -0.912213 0.168559 100 100 100
-1.040477 -0.559302 -0.187096 82 82 82
-1.654067 -0.889134 0.230577 98 98 98
-1.052588 -0.565813 -0.146731 99 99 99
-1.626833 -0.874495 0.292532 100 100 100
-1.075762 -0.578269 -0.106853 96 96 96
-1.594369 -0.857044 0.351852 100 100 100
-1.099501 -0.591031 -0.065420 100 100 100
-1.565417 -0.841481 0.410311 100 100 100
-1.793052 -0.963845 -0.035533 96 96 96
-1.548447 -0.832359 0.471051 100 100 100
-1.588086 -0.840139 -0.481403 48 48 48
-1.760518 -0.931360 0.034765 100 100 100
-1.162720 -0.615109 -0.303684 70 70 70
-1.719534 -0.909678 0.101950 100 100 100
-1.029079 -0.544409 -0.226299 95 95 95
-1.704774 -0.901870 0.168734 100 100 100
-1.047656 -0.554237 -0.187721 85 85 85
-1.666946 -0.881858 0.231552 100 100 100
-1.052808 -0.556963 -0.146243 100 100 100
-1.625612 -0.859991 0.291281 100 100 100
-1.083095 -0.572985 -0.107202 96 96 96
-1.610430 -0.851959 0.354141 100 100 100
-1.103397 -0.583726 -0.065420 100 100 100
-1.574409 -0.832903 0.411211 100 100 100
-1.788800 -0.946321 -0.035324 91 91 91
-1.553934 -0.822071 0.471051 100 100 100
-1.574425 -0.832912 -0.477262 52 52 52
-1.769356 -0.936035 0.034940 100 100 100
-1.503784 -0.795541 -0.392765 37 37 37
-1.730126 -0.915282 0.102578 100 100 100
-1.020402 -0.539819 -0.224391 98 98 98
-1.699491 -0.899075 0.168211 100 100 100
-1.047656 -0.554237 -0.187721 82 82 82
-1.680984 -0.889284 0.233502 100 100 100
-1.049299 -0.555106 -0.145756 100 100 100
-1.629104 -0.861838 0.291907 100 100 100
-1.065484 -0.563669 -0.105458 96 96 96
-1.610430 -0.851959 0.354141 100 100 100
-1.110459 -0.587461 -0.065839 100 100 100
-1.584744 -0.838371 0.413910 100 100 100
-1.792335 -0.948192 -0.035393 96 96 96
-1.547103 -0.818458 0.468980 100 100 100
-1.566491 -0.814768 -0.473121 51 51 51
-1.772300 -0.921815 0.034870 100 100 100
-1.562896 -0.812899 -0.406712 40 40 40
-1.741790 -0.905946 0.102892 100 100 100
-1.027629 -0.534494 -0.225155 98 98 98
-1.703959 -0.886269 0.168036 100 100 100
-1.044489 -0.543263 -0.186470 85 85 85
-1.683629 -0.875695 0.233014 100 100 100
-1.063715 -0.553263 -0.147218 99 99 99
-1.635081 -0.850444 0.291907 100 100 100
-1.072928 -0.558055 -0.105807 96 96 96
-1.616339 -0.840696 0.354141 100 100 100
-1.112761 -0.578773 -0.065734 100 100 100
-1.594016 -0.829085 0.414810 100 100 100
-1.813103 -0.943038 -0.035673 96 96 96
-1.552779 -0.807637 0.468980 100 100 100
-1.559635 -0.811203 -0.471051 52 52 52
-1.768751 -0.919969 0.034800 100 100 100
-1.547337 -0.804806 -0.402662 44 44 44
-1.752421 -0.911475 0.103521 100 100 100
-1.031113 -0.536306 -0.225918 98 98 98
-1.709261 -0.889027 0.168559 100 100 100
-1.044489 -0.543263 -0.186470 85 85 85
-1.680107 -0.873863 0.232527 100 100 100
-1.067238 -0.555095 -0.147706 100 100 100
-1.649101 -0.857736 0.294410 100 100 100
-1.076464 -0.559894 -0.106156 98 98 98
-1.609372 -0.837072 0.352615 100 100 100
-1.110989 -0.577851 -0.065629 100 100 100
-1.604389 -0.834480 0.417509 100 100 100
-1.816651 -0.944883 -0.035743 94 94 94
-1.559635 -0.811203 0.471051 100 100 100
-1.558380 -0.796777 -0.468980 54 54 54
-1.785814 -0.913061 0.035010 100 100 100
-1.547712 -0.791323 -0.401313 47 47 47
-1.746294 -0.892855 0.102788 100 100 100
-1.040076 -0.531776 -0.227063 95 95 95
-1.724296 -0.881608 0.169431 100 100 100
-1.048256 -0.535958 -0.186470 85 85 85
-1.689701 -0.863920 0.233014 100 100 100
-1.056947 -0.540402 -0.145756 100 100 100
-1.651532 -0.844404 0.293784 100 100 100
-1.083894 -0.554179 -0.106504 93 93 93
-1.622168 -0.829391 0.354141 100 100 100
-1.113218 -0.569172 -0.065525 100 100 100
-1.599765 -0.817937 0.414810 100 100 100
-1.826765 -0.933998 -0.035812 91 91 91
-1.575581 -0.805571 0.474156 100 100 100
-1.551500 -0.793259 -0.466910 51 51 51
-1.792936 -0.916702 0.035149 100 100 100
-1.545977 -0.790436 -0.400863 45 45 45
-1.748072 -0.893764 0.102892 100 100 100
-1.029587 -0.526413 -0.224773 93 93 93
-1.724296 -0.881608 0.169431 100 100 100
-1.050015 -0.536858 -0.186783 89 89 89
-1.693236 -0.865727 0.233502 100 100 100
-1.049877 -0.536787 -0.144781 100 100 100
-1.644496 -0.840807 0.292532 100 100 100
-1.080346 -0.552365 -0.106156 87 87 87
-1.632657 -0.834754 0.356431 100 100 100
-1.118553 -0.571900 -0.065839 99 99 99
-1.596295 -0.816162 0.413910 100 100 100
-1.823204 -0.932178 -0.035743 89 89 89
-1.572140 -0.803813 0.473121 100 100 100
-1.536286 -0.771999 -0.460698 55 55 55
-1.802865 -0.905958 0.035219 100 100 100
-1.539269 -0.773498 -0.397713 42 42 42
-1.756054 -0.882435 0.102997 100 100 100
-1.036746 -0.520975 -0.225536 93 93 93
-1.728629 -0.868654 0.169256 100 100 100
-1.055503 -0.530401 -0.187096 85 85 85
-1.706334 -0.857450 0.234477 100 100 100
-1.060694 -0.533010 -0.145756 100 100 100
-1.650326 -0.829306 0.292532 100 100 100
-1.077055 -0.541231 -0.105458 93 93 93
-1.645461 -0.826861 0.357958 100 100 100
-1.122518 -0.564077 -0.065839 89 89 89
-1.612401 -0.810248 0.416609 100 100 100
-1.829667 -0.919427 -0.035743 94 94 94
-1.574261 -0.791083 0.472086 100 100 100
-1.519024 -0.763325 -0.455522 60 60 60
-1.790358 -0.899673 0.034975 100 100 100
-1.537527 -0.772623 -0.397264 44 44 44
-1.763192 -0.886022 0.103416 100 100 100
-1.036746 -0.520975 -0.225536 86 86 86
-1.725068 -0.866865 0.168908 100 100 100
-1.048443 -0.526853 -0.185844 85 85 85
-1.706334 -0.857450 0.234477 94 94 94
-1.057147 -0.531227 -0.145268 100 100 100
-1.657386 -0.832854 0.293784 100 100 100
-1.077055 -0.541231 -0.105458 90 90 90
-1.638444 -0.823335 0.356431 100 100 100
-1.126087 -0.565870 -0.066048 68 68 68
-1.615884 -0.811998 0.417509 100 100 100
-1.833241 -0.921222 -0.035812 89 89 89
-1.570809 -0.789348 0.471051 100 100 100
-1.520852 -0.750991 -0.454486 58 58 58
-1.796595 -0.887152 0.034975 92 92 92
-1.514927 -0.748066 -0.390065 44 44 44
-1.776498 -0.877228 0.103835 100 100 100
-1.043878 -0.515463 -0.226299 83 83 83
-1.741797 -0.860093 0.169954 100 100 100
-1.050324 -0.518646 -0.185531 89 89 89
-1.708719 -0.843759 0.233989 98 98 98
-1.067949 -0.527350 -0.146243 100 100 100
-1.668474 -0.823887 0.294723 100 100 100
-1.084380 -0.535463 -0.105807 90 90 90
-1.637111 -0.808400 0.354905 100 100 100
-1.110311 -0.548268 -0.064897 31 31 31
-1.625008 -0.802423 0.418409 100 100 100
-1.853971 -0.915485 -0.036092 89 89 89
-1.586675 -0.783494 0.474156 100 100 100
-1.513923 -0.747570 -0.452416 60 60 60
-1.807353 -0.892465 0.035184 97 97 97
-1.500948 -0.741163 -0.386466 45 45 45
-1.769335 -0.873691 0.103416 100 100 100
-1.045639 -0.516333 -0.226681 77 77 77
-1.750729 -0.864504 0.170825 100 100 100
-1.048553 -0.517772 -0.185218 85 85 85
-1.708719 -0.843759 0.233989 100 100 100
-1.050150 -0.518560 -0.143806 100 100 100
-1.677330 -0.828260 0.296287 100 100 100
-1.087953 -0.537227 -0.106156 93 93 93
-1.651194 -0.815354 0.357958 100 100 100
-1.621513 -0.800698 0.417509 100 100 100
-1.857557 -0.917255 -0.036161 91 91 91
-1.590139 -0.785205 0.475192 100 100 100
-1.513891 -0.734453 -0.450863 66 66 66
-1.826134 -0.885935 0.035428 100 100 100
-1.493813 -0.724712 -0.383317 43 43 43
-1.777188 -0.862190 0.103521 100 100 100
-1.045685 -0.507306 -0.225918 67 67 67
-1.754929 -0.851391 0.170651 100 100 100
-1.059251 -0.513888 -0.186470 85 85 85
-1.723498 -0.836142 0.235208 100 100 100
-1.057317 -0.512949 -0.144293 100 100 100
-1.667076 -0.808770 0.293471 95 95 95
-1.091677 -0.529619 -0.106156 90 90 90
-1.660378 -0.805520 0.358721 100 100 100
-1.883208 -0.913625 -0.109696 77 77 77
-1.627064 -0.789358 0.417509 100 100 100
-1.845924 -0.895536 -0.035812 94 94 94
-1.602534 -0.777458 0.477262 100 100 100
-1.493034 -0.724334 -0.444651 80 80 80
-1.826134 -0.885935 0.035428 100 100 100
-1.492059 -0.723862 -0.382867 45 45 45
-1.786173 -0.866548 0.104044 96 96 96
-1.043919 -0.506449 -0.225536 56 56 56
-1.753136 -0.850521 0.170477 100 100 100
-1.061028 -0.514750 -0.186783 89 89 89
-1.732428 -0.840474 0.236427 100 100 100
-1.064461 -0.516415 -0.145268 100 100 100
-1.695512 -0.822565 0.298477 100 100 100
-1.077336 -0.522662 -0.104761 85 85 85
-1.656846 -0.803806 0.357958 100 100 100
-1.895787 -0.919727 -0.110429 87 87 87
-1.627064 -0.789358 0.417509 100 100 100
-1.856719 -0.900774 -0.036022 91 91 91
-1.592106 -0.772398 0.474156 100 100 100
-1.485846 -0.708076 -0.441028 60 60 60
-1.825053 -0.869724 0.035289 100 100 100
-1.486521 -0.708397 -0.380167 44 44 44
-1.799391 -0.857494 0.104463 93 93 93
-1.070469 -0.510129 -0.230497 46 46 46
-1.762629 -0.839976 0.170825 100 100 100
-1.057463 -0.503931 -0.185531 88 88 88
-1.741837 -0.830067 0.236914 100 100 100
-1.068040 -0.508971 -0.145268 100 100 100
-1.688731 -0.804760 0.296287 100 100 100
-1.084556 -0.516842 -0.105110 87 87 87
-1.662417 -0.792220 0.357958 100 100 100
-1.902161 -0.906470 -0.110429 87 87 87
-1.643090 -0.783010 0.420209 100 100 100
-1.866573 -0.889510 -0.036092 91 91 91
-1.600947 -0.762927 0.475192 100 100 100
-1.480614 -0.705583 -0.439475 53 53 53
-1.828664 -0.871444 0.035359 100 100 100
-1.475966 -0.703367 -0.377468 45 45 45
-1.802997 -0.859213 0.104672 93 93 93
-1.307957 -0.623303 -0.281634 43 43 43
-1.771622 -0.844261 0.171697 100 100 100
-1.057463 -0.503931 -0.185531 93 93 93
-1.732877 -0.825797 0.235695 100 100 100
-1.068040 -0.508971 -0.145268 100 100 100
-1.692297 -0.806459 0.296913 100 100 100
-1.089952 -0.519413 -0.105633 82 82 82
-1.662417 -0.792220 0.357958 100 100 100
-1.894950 -0.903033 -0.110010 92 92 92
-1.650127 -0.786363 0.422008 100 100 100
-1.873793 -0.892951 -0.036231 89 89 89
-1.607923 -0.766251 0.477262 100 100 100
-1.478505 -0.691953 -0.437404 53 53 53
-1.841947 -0.862047 0.035498 100 100 100
-1.463191 -0.684786 -0.372969 44 44 44
-1.808951 -0.846605 0.104672 93 93 93
-1.447416 -0.677403 -0.310637 49 49 49
-1.784691 -0.835251 0.172394 100 100 100
-1.060955 -0.496536 -0.185531 85 85 85
-1.735004 -0.811997 0.235208 100 100 100
-1.067971 -0.499820 -0.144781 100 100 100
-1.699675 -0.795463 0.297225 100 100 100
-1.098965 -0.514325 -0.106156 85 85 85
-1.678576 -0.785588 0.360247 100 100 100
-1.904826 -0.891475 -0.110220 92 92 92
-1.641456 -0.768216 0.418409 100 100 100
-1.879982 -0.879848 -0.036231 91 91 91
-1.613233 -0.755007 0.477262 100 100 100
-1.468007 -0.687040 -0.434298 51 51 51
-1.849192 -0.865438 0.035638 100 100 100
-1.454366 -0.680656 -0.370719 43 43 43
-1.805333 -0.844912 0.104463 96 96 96
-1.468754 -0.687390 -0.315216 25 25 25
-1.781082 -0.833562 0.172045 100 100 100
-1.068112 -0.499886 -0.186783 90 90 90
-1.735004 -0.811997 0.235208 100 100 100
-1.064375 -0.498137 -0.144293 100 100 100
-1.694308 -0.792951 0.296287 100 100 100
-1.104379 -0.516859 -0.106679 78 78 78
-1.689245 -0.790581 0.362537 100 100 100
-1.908443 -0.893168 -0.110429 89 89 89
-1.644986 -0.769868 0.419309 100 100 100
-1.879982 -0.879848 -0.036231 87 87 87
-1.623731 -0.759920 0.480368 100 100 100
-1.453342 -0.668155 -0.428604 61 61 61
-1.855040 -0.852831 0.035638 100 100 100
-1.455424 -0.669112 -0.369820 43 43 43
-1.816487 -0.835106 0.104777 100 100 100
-1.478750 -0.679836 -0.316361 24 24 24
-1.788524 -0.822251 0.172220 100 100 100
-1.071490 -0.492604 -0.186783 83 83 83
-1.751312 -0.805143 0.236670 100 100 100
-1.071349 -0.492539 -0.144781 100 100 100
-1.703256 -0.783050 0.296913 100 100 100
-1.093389 -0.502672 -0.105284 81 81 81
-1.694587 -0.779065 0.362537 100 100 100
-1.925367 -0.885163 -0.111057 87 87 87
-1.657271 -0.761909 0.421108 100 100 100
-1.885927 -0.867031 -0.036231 91 91 91
-1.621845 -0.745623 0.478298 100 100 100
-1.442810 -0.663314 -0.425499 60 60 60
-1.847772 -0.849490 0.035498 100 100 100
-1.446571 -0.665042 -0.367570 45 45 45
-1.823745 -0.838443 0.105195 100 100 100
-1.471615 -0.676556 -0.314835 44 44 44
-1.783094 -0.819754 0.171697 100 100 100
-1.066105 -0.490128 -0.185844 82 82 82
-1.760331 -0.809289 0.237889 100 100 100
-1.074956 -0.494197 -0.145268 100 100 100
-1.706845 -0.784700 0.297538 100 100 100
-1.093389 -0.502672 -0.105284 73 73 73
-1.687452 -0.775784 0.361011 100 100 100
-1.932626 -0.888500 -0.111476 87 87 87
-1.660812 -0.763537 0.422008 100 100 100
-1.896828 -0.872043 -0.036441 87 87 87
-1.625356 -0.747236 0.479333 100 100 100
-1.447406 -0.653225 -0.425499 63 63 63
-1.859126 -0.839037 0.035603 100 100 100
-1.426311 -0.643705 -0.361271 45 45 45
-1.836836 -0.828977 0.105614 100 100 100
-1.476302 -0.666266 -0.314835 46 46 46
-1.796037 -0.810565 0.172394 100 100 100
-1.069501 -0.482673 -0.185844 80 80 80
-1.764128 -0.796164 0.237645 100 100 100
-1.081999 -0.488314 -0.145756 100 100 100
-1.723085 -0.777641 0.299416 100 100 100
-1.104136 -0.498305 -0.105981 72 72 72
-1.689248 -0.762370 0.360247 100 100 100
-1.931499 -0.871700 -0.111057 89 89 89
-1.669654 -0.753527 0.422908 100 100 100
-1.910161 -0.862069 -0.036580 87 87 87
-1.634055 -0.737461 0.480368 100 100 100
-1.440363 -0.650046 -0.423428 61 61 61
-1.864594 -0.841505 0.035708 100 100 100
-1.422759 -0.642101 -0.360372 52 52 52
-1.824093 -0.823226 0.104881 100 100 100
-1.470934 -0.663843 -0.313690 40 40 40
-1.803301 -0.813843 0.173091 100 100 100
-1.073102 -0.484299 -0.186470 77 77 77
-1.753272 -0.791264 0.236183 100 100 100
-1.078380 -0.486681 -0.145268 100 100 100
-1.723085 -0.777641 0.299416 100 100 100
-1.111400 -0.501583 -0.106679 71 71 71
-1.696406 -0.765600 0.361774 100 100 100
-1.935140 -0.873343 -0.111266 87 87 87
-1.666102 -0.751924 0.422008 100 100 100
-1.913806 -0.863715 -0.036650 82 82 82
-1.641098 -0.740639 0.482439 100 100 100
-1.434268 -0.635281 -0.420322 66 66 66
-1.874080 -0.830087 0.035777 100 100 100
-1.421861 -0.629785 -0.359022 50 50 50
-1.835274 -0.812898 0.105195 100 100 100
-1.464762 -0.648787 -0.311400 52 52 52
-1.816226 -0.804461 0.173789 100 100 100
-1.087294 -0.481595 -0.188347 73 73 73
-1.775088 -0.786240 0.238376 100 100 100
-1.078121 -0.477532 -0.144781 100 100 100
-1.723053 -0.763192 0.298477 100 100 100
-1.114875 -0.493812 -0.106679 66 66 66
-1.716070 -0.760099 0.364827 100 100 100
-1.944843 -0.861430 -0.111476 89 89 89
-1.671311 -0.740274 0.422008 100 100 100
-1.905162 -0.843854 -0.036371 89 89 89
-1.646228 -0.729164 0.482439 100 100 100
-1.420137 -0.629022 -0.416181 64 64 64
-1.877737 -0.831706 0.035847 100 100 100
-1.430770 -0.633731 -0.361271 44 44 44
-1.837100 -0.813707 0.105300 93 93 93
-1.453992 -0.644017 -0.309111 60 60 60
-1.810761 -0.802041 0.173266 96 96 96
-1.085487 -0.480795 -0.188034 63 63 63
-1.778718 -0.787848 0.238864 100 100 100
-1.078121 -0.477532 -0.144781 100 100 100
-1.728472 -0.765592 0.299416 100 100 100
-1.113053 -0.493005 -0.106504 51 51 51
-1.714275 -0.759304 0.364445 100 100 100
-1.959452 -0.867900 -0.112313 84 84 84
-1.682001 -0.745009 0.424708 100 100 100
-1.899677 -0.841424 -0.036266 82 82 82
-1.649761 -0.730729 0.483474 100 100 100
-1.414078 -0.613978 -0.413075 67 67 67
-1.878280 -0.815530 0.035743 100 100 100
-1.435377 -0.623226 -0.361271 44 44 44
-1.857672 -0.806582 0.106137 100 100 100
-1.465877 -0.636469 -0.310637 57 57 57
-1.814764 -0.787952 0.173091 100 100 100
-1.078111 -0.468105 -0.186157 53 53 53
-1.791729 -0.777951 0.239839 100 100 100
-1.085234 -0.471198 -0.145268 100 100 100
-1.737661 -0.754475 0.300041 100 100 100
-1.114809 -0.484039 -0.106330 22 22 22
-1.717994 -0.745936 0.364064 100 100 100
-1.965761 -0.853514 -0.112313 92 92 92
-1.694567 -0.735764 0.426507 100 100 100
-1.924137 -0.835441 -0.036615 93 93 93
-1.647985 -0.715539 0.481403 100 100 100
-1.403445 -0.609362 -0.409969 68 68 68
-1.883783 -0.817920 0.035847 100 100 100
-1.424652 -0.618570 -0.358572 60 60 60
-1.861336 -0.808173 0.106347 100 100 100
-1.462275 -0.634905 -0.309874 56 56 56
-1.818419 -0.789539 0.173440 100 100 100
-1.094419 -0.475186 -0.188973 46 46 46
-1.788088 -0.776370 0.239351 100 100 100
-1.085234 -0.471198 -0.145268 99 99 99
-1.741285 -0.756048 0.300667 100 100 100
-1.717994 -0.745936 0.364064 100 100 100
-1.963929 -0.852718 -0.112208 87 87 87
-1.705293 -0.740421 0.429207 100 100 100
-1.933308 -0.839423 -0.036790 87 87 87
-1.651529 -0.717077 0.482439 100 100 100
-1.403902 -0.598525 -0.408934 67 67 67
-1.898364 -0.809329 0.036022 100 100 100
-1.425138 -0.607579 -0.357672 52 52 52
-1.857468 -0.791894 0.105823 100 100 100
-1.466454 -0.625193 -0.309874 38 38 38
-1.834612 -0.782150 0.174486 99 99 99
-1.344676 -0.573275 -0.231523 69 69 69
