-1.894858 1.599013 0.304430 91 91 91
-1.875016 1.582269 0.388583 82 82 82
-2.090635 1.764223 -0.239330 68 68 68
-1.832001 1.545970 0.465956 88 88 88
-2.043847 1.724740 -0.140156 67 67 67
-1.813989 1.530770 0.547981 87 87 87
-2.026473 1.710079 -0.046284 79 79 79
-1.783504 1.505045 0.625307 90 90 90
-1.997436 1.685575 0.045621 82 82 82
-1.966001 1.659048 0.134817 71 71 71
-1.938367 1.635729 0.221899 87 87 87
-1.902443 1.605414 0.305648 96 96 96
-1.881055 1.587365 0.389835 79 79 79
-2.099771 1.771933 -0.240376 68 68 68
-1.847005 1.558631 0.469772 85 85 85
-2.053006 1.732469 -0.140784 69 69 69
-1.809521 1.527000 0.546631 82 82 82
-2.032586 1.715237 -0.046423 79 79 79
-1.795316 1.515012 0.629448 90 90 90
-1.991399 1.705028 0.045760 78 78 78
-1.957113 1.675672 0.135027 73 73 73
-1.935693 1.657333 0.222944 91 91 91
-1.898446 1.625441 0.306867 91 91 91
-1.872649 1.603354 0.390460 77 77 77
-2.100659 1.798575 -0.241944 64 64 64
-1.850718 1.584577 0.473588 82 82 82
-2.052693 1.757507 -0.141621 69 69 69
-1.807430 1.547514 0.549330 84 84 84
-2.020260 1.729738 -0.046423 75 75 75
-1.787363 1.530333 0.630483 90 90 90
-2.000513 1.712831 0.045970 82 82 82
-1.967733 1.684765 0.135759 79 79 79
-1.934180 1.656037 0.222770 82 82 82
-1.912017 1.637061 0.309061 78 78 78
-1.005769 0.861135 -0.162574 1 1 1
-1.875650 1.605923 0.391086 74 74 74
-2.097632 1.795983 -0.241596 64 64 64
-1.853700 1.587130 0.474351 80 80 80
-2.064830 1.767899 -0.142458 71 71 71
-1.816311 1.555118 0.552030 78 78 78
-2.029374 1.737542 -0.046633 74 74 74
-1.787363 1.530333 0.630483 90 90 90
-1.988507 1.726755 0.045970 82 82 82
-1.971004 1.711556 0.136806 89 89 89
-1.933102 1.678644 0.223990 87 87 87
-1.906537 1.655576 0.310036 86 86 86
-0.948772 0.823883 -0.154287 1 1 1
-1.879308 1.631930 0.394215 77 77 77
-2.091060 1.815809 -0.242293 64 64 64
-1.848504 1.605182 0.475878 77 77 77
-2.058470 1.787509 -0.142877 69 69 69
-1.814239 1.575427 0.554729 80 80 80
-2.026254 1.759534 -0.046842 74 74 74
-1.779553 1.545307 0.631518 85 85 85
-1.994546 1.732000 0.046109 78 78 78
-1.977036 1.716794 0.137225 85 85 85
-1.943633 1.687788 0.225210 85 85 85
-1.909535 1.658179 0.310523 86 86 86
-0.945774 0.821280 -0.153799 1 1 1
-1.882291 1.634521 0.394841 77 77 77
-2.107608 1.830179 -0.244210 57 57 57
-1.848504 1.605182 0.475878 80 80 80
-2.062994 1.791438 -0.143191 69 69 69
-1.820124 1.580538 0.556529 80 80 80
-2.041352 1.772645 -0.047191 74 74 74
-1.788305 1.552907 0.634624 85 85 85
-1.994412 1.756455 0.046388 82 82 82
-1.962004 1.727915 0.137016 79 79 79
-1.940774 1.709217 0.226256 78 78 78
-1.897912 1.671469 0.310523 82 82 82
-0.953425 0.839671 -0.155993 1 1 1
-1.882693 1.658066 0.397344 79 79 79
-2.106741 1.855383 -0.245605 59 59 59
-1.846093 1.625833 0.478167 86 86 86
-2.056432 1.811076 -0.143610 71 71 71
-1.809046 1.593206 0.556529 75 75 75
-2.028927 1.786853 -0.047191 75 75 75
-1.786119 1.573015 0.637730 85 85 85
-2.006417 1.767028 0.046668 82 82 82
-1.968000 1.733195 0.137434 79 79 79
-1.949745 1.717118 0.227302 82 82 82
-1.906850 1.679341 0.311986 82 82 82
-0.966833 0.851478 -0.158186 6 6 6
-1.885658 1.660677 0.397969 86 86 86
-2.114217 1.861967 -0.246476 61 61 61
-1.854933 1.633618 0.480457 90 90 90
-2.065426 1.818997 -0.144238 67 67 67
-1.814896 1.598358 0.558329 75 75 75
-2.034930 1.792139 -0.047331 79 79 79
-1.797717 1.583229 0.641871 83 83 83
-2.008081 1.792280 0.046982 86 86 86
-1.968382 1.756848 0.138272 89 89 89
-1.939800 1.731338 0.227476 76 76 76
-0.686765 0.612961 -0.145797 4 4 4
-1.910481 1.705169 0.314423 74 74 74
-0.968569 0.864481 -0.159405 8 8 8
-1.877550 1.675778 0.398595 77 77 77
-2.110740 1.883908 -0.247522 64 64 64
-1.852846 1.653728 0.482747 84 84 84
-2.068217 1.845954 -0.145285 65 65 65
-1.815886 1.620740 0.561928 73 73 73
-2.025983 1.808259 -0.047401 75 75 75
-1.784295 1.592544 0.640836 85 85 85
-2.006589 1.790949 0.046947 78 78 78
-1.980303 1.767488 0.139109 82 82 82
-1.941286 1.732664 0.227651 70 70 70
-0.686765 0.612961 -0.145797 4 4 4
-1.922329 1.715744 0.316373 74 74 74
-0.970050 0.865803 -0.159649 12 12 12
-1.886393 1.683670 0.400472 79 79 79
-2.113713 1.886561 -0.247871 66 66 66
-1.852846 1.653728 0.482747 86 86 86
-2.077157 1.853934 -0.145913 63 63 63
-1.821702 1.625931 0.563727 84 84 84
-2.040902 1.821575 -0.047750 75 75 75
-1.790060 1.597690 0.642907 81 81 81
-1.999651 1.810631 0.047087 82 82 82
-1.979448 1.792338 0.139946 82 82 82
-1.942130 1.758547 0.229220 76 76 76
-1.910002 1.729456 0.316373 74 74 74
-0.959415 0.868725 -0.158918 37 37 37
-1.886011 1.707732 0.402975 79 79 79
-2.114928 1.915011 -0.249614 66 66 66
-1.843875 1.669580 0.483510 86 86 86
-2.066799 1.871431 -0.146122 63 63 63
-1.821576 1.649389 0.567327 84 84 84
-2.033744 1.841501 -0.047889 75 75 75
-1.790038 1.620831 0.647048 90 90 90
-2.011510 1.821368 0.047366 82 82 82
-1.982410 1.795019 0.140156 82 82 82
-1.955422 1.770583 0.230788 85 85 85
-0.682361 0.617860 -0.145797 4 4 4
-1.912945 1.732121 0.316860 76 76 76
-0.952058 0.862063 -0.157699 97 97 97
-1.894797 1.715688 0.404852 74 74 74
-2.126743 1.925709 -0.251009 64 64 64
-1.852607 1.677486 0.485800 90 90 90
-2.075682 1.879475 -0.146750 61 61 61
-1.818687 1.646773 0.566427 87 87 87
-2.045603 1.852239 -0.048169 79 79 79
-1.798630 1.628611 0.650153 85 85 85
-2.009055 1.844834 0.047610 74 74 74
-1.975714 1.814218 0.140574 82 82 82
-1.948884 1.789581 0.231486 82 82 82
-1.911041 1.754832 0.318566 72 72 72
-0.944554 0.867346 -0.157455 100 100 100
-1.882773 1.728874 0.404852 79 79 79
-2.119118 1.945900 -0.251706 64 64 64
-1.855312 1.703658 0.489616 90 90 90
-2.074279 1.904727 -0.147587 59 59 59
-1.812888 1.664702 0.568226 92 92 92
-2.035568 1.869180 -0.048238 75 75 75
-1.792908 1.646355 0.652224 87 87 87
-2.020839 1.855654 0.047889 74 74 74
-1.987483 1.825025 0.141412 82 82 82
-1.948884 1.789581 0.231486 82 82 82
-0.707131 0.649330 -0.152054 3 3 3
-1.922738 1.765573 0.320516 72 72 72
-0.931395 0.855262 -0.155262 90 90 90
-1.894413 1.739563 0.407355 77 77 77
-2.126456 1.952638 -0.252577 68 68 68
-1.861096 1.708969 0.491142 92 92 92
-2.086048 1.915534 -0.148425 59 59 59
-1.821500 1.672610 0.570926 87 87 87
-2.041460 1.874590 -0.048378 77 77 77
-1.795754 1.648968 0.653259 83 83 83
-2.004908 1.866992 0.047820 71 71 71
-1.989310 1.852467 0.142458 82 82 82
-1.942175 1.808575 0.232183 78 78 78
-0.745950 0.694636 -0.161440 1 1 1
-1.916176 1.784364 0.321491 69 69 69
-0.921043 0.857685 -0.154530 67 67 67
-1.888005 1.758130 0.408607 74 74 74
-2.114230 1.968794 -0.252752 61 61 61
-1.849120 1.721920 0.491142 92 92 92
-2.084318 1.940939 -0.149262 61 61 61
-1.821188 1.695910 0.574525 82 82 82
-2.042957 1.902424 -0.048727 75 75 75
-1.787026 1.664098 0.654295 78 78 78
-2.016615 1.877894 0.048099 69 69 69
-1.999542 1.861995 0.143191 73 73 73
-1.953840 1.819437 0.233577 82 82 82
-0.761852 0.709445 -0.164882 1 1 1
-1.916176 1.784364 0.321491 65 65 65
-0.919590 0.856332 -0.154287 45 45 45
-1.902461 1.771592 0.411736 70 70 70
-2.131727 1.985087 -0.254843 66 66 66
-1.851994 1.724596 0.491906 90 90 90
-2.084318 1.940939 -0.149262 59 59 59
-1.829745 1.703878 0.577224 90 90 90
-2.057592 1.916051 -0.049076 79 79 79
-1.798336 1.674630 0.658436 85 85 85
-2.012511 1.899813 0.048308 67 67 67
-1.982464 1.871449 0.142877 79 79 79
-1.958796 1.849106 0.235669 82 82 82
-0.820209 0.774278 -0.178648 1 1 1
-1.925639 1.817806 0.325147 97 97 97
-0.905079 0.854396 -0.152824 23 23 23
-1.898977 1.792637 0.413613 65 65 65
-2.129756 2.010493 -0.256238 61 61 61
-1.848778 1.745248 0.494195 90 90 90
-2.082677 1.966050 -0.150100 59 59 59
-1.818105 1.716293 0.577224 84 84 84
-2.061951 1.946485 -0.049495 75 75 75
-1.798134 1.697441 0.662577 85 85 85
-2.025598 1.912167 0.048622 63 63 63
-1.986821 1.875562 0.143191 76 76 76
-1.964591 1.854577 0.236366 85 85 85
-0.870484 0.821738 -0.189599 4 4 4
-1.919865 1.812355 0.324172 74 74 74
-0.897862 0.847583 -0.151605 8 8 8
-1.898977 1.792637 0.413613 65 65 65
-2.147142 2.026905 -0.258330 61 61 61
-1.860199 1.756030 0.497248 86 86 86
-2.097200 1.979760 -0.151146 63 63 63
-1.823773 1.721644 0.579024 87 87 87
-2.059043 1.943739 -0.049425 74 74 74
-1.809372 1.708050 0.666718 83 83 83
-2.020867 1.934559 0.048832 65 65 65
-1.988107 1.903198 0.144238 71 71 71
-1.954475 1.871003 0.236715 85 85 85
-0.883276 0.845553 -0.193666 8 8 8
-1.918637 1.836696 0.326122 87 87 87
-1.892124 1.811314 0.414864 67 67 67
-2.134379 2.043223 -0.258504 59 59 59
-1.859239 1.779835 0.500301 90 90 90
-2.089099 1.999877 -0.151565 63 63 63
-1.820156 1.742420 0.581723 87 87 87
-2.051201 1.963598 -0.049565 74 74 74
-1.797404 1.720640 0.666718 90 90 90
-2.022311 1.935942 0.048867 69 69 69
-1.998206 1.912866 0.144971 66 66 66
-1.953036 1.869625 0.236541 76 76 76
-0.860445 0.823697 -0.188660 5 5 5
-1.928675 1.846305 0.327829 80 80 80
-2.202561 2.108494 -0.374383 82 82 82
-1.897831 1.816778 0.416116 67 67 67
-2.143014 2.051490 -0.259550 59 59 59
-1.862076 1.782550 0.501064 84 84 84
-2.103527 2.013689 -0.152612 65 65 65
-1.837048 1.758591 0.587122 87 87 87
-2.068535 1.980192 -0.049984 70 70 70
-1.802986 1.725984 0.668788 85 85 85
-2.014827 1.955233 0.049006 67 67 67
-1.998039 1.938941 0.145913 68 68 68
-1.955992 1.898138 0.238458 82 82 82
-0.860489 0.835038 -0.189911 4 4 4
-1.917488 1.860772 0.328072 91 91 91
-2.186734 2.122055 -0.374139 67 67 67
-1.899597 1.843411 0.419244 65 65 65
-2.139009 2.075742 -0.260770 55 55 55
-1.855535 1.800652 0.502591 86 86 86
-2.092638 2.030742 -0.152821 65 65 65
-1.833426 1.779197 0.589822 90 90 90
-2.063619 2.002582 -0.050193 70 70 70
-1.793969 1.740907 0.669824 87 87 87
-2.027743 1.967766 0.049321 65 65 65
-1.998039 1.938941 0.145913 73 73 73
-1.970290 1.912013 0.240201 78 78 78
-0.868995 0.843292 -0.191789 2 2 2
-1.923186 1.866302 0.329047 87 87 87
-2.192432 2.127584 -0.375114 65 65 65
-1.905268 1.848914 0.420496 67 67 67
-2.150448 2.086842 -0.262164 60 60 60
-1.863988 1.808856 0.504881 84 84 84
-2.104104 2.041869 -0.153658 65 65 65
-1.833426 1.779197 0.589822 84 84 84
-2.075100 2.013722 -0.050472 68 68 68
-1.807832 1.754361 0.675000 83 83 83
-0.816530 0.803524 -0.306959 0 0 0
-2.023933 1.991693 0.049565 74 74 74
-1.992996 1.961248 0.146541 71 71 71
-1.961154 1.929914 0.240724 76 76 76
-0.878574 0.864579 -0.195230 1 1 1
-1.920014 1.889429 0.330753 80 80 80
-2.193089 2.158154 -0.377795 71 71 71
-1.895129 1.864941 0.421122 67 67 67
-2.147187 2.112984 -0.263559 59 59 59
-1.870906 1.841103 0.510223 86 86 86
-2.101187 2.067716 -0.154496 63 63 63
-1.829294 1.800155 0.592521 84 84 84
-2.060991 2.028160 -0.050472 67 67 67
-1.814818 1.785909 0.682247 83 83 83
-0.793122 0.780488 -0.298160 0 0 0
-2.041036 2.008524 0.049984 67 67 67
-2.004384 1.972455 0.147378 73 73 73
-1.969675 1.938299 0.241770 76 76 76
-0.865902 0.852109 -0.192414 1 1 1
-1.936993 1.906138 0.333678 80 80 80
-2.202993 2.167901 -0.379501 65 65 65
-1.900761 1.870483 0.422373 70 70 70
-2.152868 2.118574 -0.264256 60 60 60
-1.879302 1.849365 0.512513 82 82 82
-2.115422 2.081725 -0.155542 61 61 61
-1.837628 1.808356 0.595220 87 87 87
-2.070968 2.037978 -0.050717 67 67 67
-1.814818 1.785909 0.682247 81 81 81
-0.784919 0.783277 -0.297124 0 0 0
-2.026965 2.022724 0.049984 69 69 69
-2.006116 2.001919 0.148529 79 79 79
-1.963147 1.959039 0.242642 68 68 68
-0.840357 0.838599 -0.188034 1 1 1
-1.936285 1.932234 0.335872 85 85 85
-2.196236 2.191641 -0.380964 65 65 65
-1.901639 1.897661 0.425502 70 70 70
-2.143666 2.139181 -0.264953 61 61 61
-1.866345 1.862440 0.512513 78 78 78
-2.112148 2.107729 -0.156380 61 61 61
-1.838753 1.834906 0.599720 79 79 79
-2.068014 2.063687 -0.050996 67 67 67
-1.805041 1.801264 0.683282 81 81 81
-0.801329 0.799652 -0.303336 0 0 0
-2.032627 2.028374 0.050123 69 69 69
-2.010358 2.006152 0.148843 76 76 76
-1.974429 1.970298 0.244036 70 70 70
-0.848746 0.846971 -0.189911 1 1 1
-1.930664 1.926625 0.334897 87 87 87
-2.207477 2.202859 -0.382913 65 65 65
-1.912825 1.908823 0.428005 70 70 70
-2.157769 2.153255 -0.266697 61 61 61
-1.871904 1.867987 0.514039 82 82 82
-2.112148 2.107729 -0.156380 63 63 63
-1.849788 1.845918 0.603319 79 79 79
-2.083584 2.079225 -0.051380 67 67 67
-1.815980 1.812181 0.687423 78 78 78
-0.799942 0.809210 -0.304889 0 0 0
-2.035643 2.059228 0.050542 69 69 69
-2.002272 2.025471 0.149262 76 76 76
-1.969376 1.992194 0.245082 68 68 68
-0.861015 0.870991 -0.193979 2 2 2
-1.927274 1.949604 0.336603 80 80 80
-2.198014 2.223480 -0.383888 65 65 65
-1.905343 1.927419 0.429256 74 74 74
-2.157069 2.182061 -0.268440 68 68 68
-1.867427 1.889063 0.516329 76 76 76
-2.111793 2.136261 -0.157427 59 59 59
-1.837181 1.858466 0.603319 77 77 77
-2.076412 2.100469 -0.051554 74 74 74
-1.814468 1.835491 0.691564 85 85 85
-0.809448 0.818827 -0.308512 0 0 0
-2.049701 2.073449 0.050891 69 69 69
-2.007889 2.031152 0.149681 73 73 73
-1.974979 1.997861 0.245779 67 67 67
-0.881846 0.892063 -0.198672 12 12 12
-1.941230 1.963721 0.339041 75 75 75
-2.207783 2.233362 -0.385595 63 63 63
-1.910898 1.933038 0.430508 67 67 67
-2.165474 2.190563 -0.269486 61 61 61
-1.881229 1.903025 0.520145 76 76 76
-2.124430 2.149044 -0.158369 55 55 55
-1.845401 1.866782 0.606018 77 77 77
-2.075006 2.099047 -0.051520 67 67 67
-1.822617 1.843734 0.694670 81 81 81
-0.787530 0.807858 -0.302301 0 0 0
-2.040759 2.093436 0.051031 71 71 71
-0.808018 0.828874 -0.267242 1 1 1
-2.008996 2.060852 0.150832 79 79 79
-1.965156 2.015880 0.246302 64 64 64
-0.872839 0.895369 -0.198046 37 37 37
-1.942716 1.992862 0.341722 70 70 70
-2.214308 2.271464 -0.389494 68 68 68
-1.902872 1.951989 0.431759 70 70 70
-2.159863 2.215614 -0.270706 66 66 66
-1.876120 1.924547 0.522435 76 76 76
-2.126106 2.180985 -0.159625 53 53 53
-1.840485 1.887992 0.608718 72 72 72
-2.078448 2.132097 -0.051973 67 67 67
-1.812398 1.859180 0.695706 83 83 83
-0.779439 0.799558 -0.299195 0 0 0
-2.044947 2.097731 0.051136 65 65 65
-0.788974 0.809339 -0.260943 1 1 1
-2.018755 2.070863 0.151565 73 73 73
-1.972110 2.023014 0.247174 65 65 65
-0.875597 0.898198 -0.198672 81 81 81
-1.951030 2.001390 0.343184 75 75 75
-2.230936 2.288521 -0.392419 100 100 100
-1.913903 1.963305 0.434262 67 67 67
-2.162645 2.218467 -0.271054 64 64 64
-1.881602 1.930170 0.523962 78 78 78
-2.137259 2.192426 -0.160462 56 56 56
-1.851368 1.899155 0.612317 75 75 75
-2.082635 2.136393 -0.052078 65 65 65
-1.817792 1.864713 0.697776 80 80 80
-0.781871 0.813336 -0.302301 0 0 0
-2.042725 2.124931 0.051450 71 71 71
-0.783304 0.814827 -0.260943 1 1 1
-2.018090 2.099304 0.152612 68 68 68
-1.971746 2.051096 0.248917 70 70 70
-0.873412 0.908561 -0.199610 100 100 100
-1.935635 2.013531 0.342940 72 72 72
-2.231414 2.321213 -0.395344 116 116 116
-1.913840 1.990859 0.437391 67 67 67
-2.166435 2.253620 -0.273495 66 66 66
-1.870802 1.946089 0.524725 76 76 76
-2.121901 2.207293 -0.160462 55 55 55
-1.840765 1.914844 0.613217 77 77 77
-2.084300 2.168179 -0.052497 72 72 72
-1.810085 1.882929 0.699847 73 73 73
-0.781871 0.813336 -0.302301 0 0 0
-2.057969 2.140789 0.051834 63 63 63
-0.780603 0.812017 -0.260043 1 1 1
-2.018090 2.099304 0.152612 71 71 71
-1.985554 2.065459 0.250660 70 70 70
-0.882995 0.918530 -0.201800 100 100 100
-1.953519 2.032135 0.346109 80 80 80
-2.214905 2.304040 -0.392419 100 100 100
-1.927530 2.005100 0.440519 65 65 65
-2.180243 2.267983 -0.275238 64 64 64
-1.878966 1.954581 0.527014 73 73 73
-2.132974 2.218812 -0.161299 55 55 55
-1.843466 1.917653 0.614116 69 69 69
-2.094001 2.178271 -0.052741 68 68 68
-1.818118 1.891285 0.702953 87 87 87
-0.764212 0.806157 -0.297642 0 0 0
-2.056731 2.169616 0.052183 61 61 61
-0.781619 0.824518 -0.262293 1 1 1
-2.014377 2.124938 0.153449 71 71 71
-1.982052 2.090838 0.252054 67 67 67
-0.869766 0.917504 -0.200236 82 82 82
-1.952941 2.060130 0.348546 80 80 80
-2.196035 2.316566 -0.391932 100 100 100
-1.912126 2.017074 0.440207 63 63 63
-2.183547 2.303392 -0.277678 64 64 64
-1.876080 1.979050 0.530067 76 76 76
-2.127051 2.243795 -0.162032 57 57 57
-1.838078 1.938962 0.616816 73 73 73
-2.081494 2.195739 -0.052811 68 68 68
-1.815503 1.915148 0.707094 85 85 85
-0.764212 0.806157 -0.297642 0 0 0
-2.062234 2.175421 0.052322 61 61 61
-0.766871 0.808961 -0.257344 1 1 1
-2.026744 2.137983 0.154391 64 64 64
-0.755024 0.796464 -0.213324 1 1 1
-1.982052 2.090838 0.252054 68 68 68
-2.178492 2.298060 -0.501529 65 65 65
-1.963867 2.071655 0.350496 83 83 83
-2.198766 2.319447 -0.392419 100 100 100
-1.920280 2.025676 0.442084 63 63 63
-2.183547 2.303392 -0.277678 66 66 66
-1.884184 1.987599 0.532357 79 79 79
-2.138043 2.255391 -0.162869 61 61 61
-1.848803 1.950276 0.620415 75 75 75
-2.092500 2.207349 -0.053090 67 67 67
-1.818161 1.917952 0.708129 81 81 81
-0.758849 0.811207 -0.297642 0 0 0
-2.050493 2.191971 0.052392 66 66 66
-0.780127 0.833954 -0.263643 1 1 1
-2.023435 2.163047 0.155228 66 66 66
-0.771184 0.824394 -0.219430 1 1 1
-1.979030 2.115577 0.253449 70 70 70
-2.153756 2.302359 -0.499339 85 85 85
-1.954152 2.088983 0.351227 77 77 77
-2.187403 2.338328 -0.393151 100 100 100
-1.920298 2.052793 0.445212 61 61 61
-2.189999 2.341103 -0.280467 100 100 100
-1.870960 2.000051 0.532357 82 82 82
-2.136682 2.284107 -0.163916 57 57 57
-1.849141 1.976726 0.624914 73 73 73
-2.091475 2.235781 -0.053439 65 65 65
-1.810680 1.935612 0.710199 81 81 81
-0.753570 0.805564 -0.295571 0 0 0
-2.069618 2.212416 0.052881 78 78 78
-0.769477 0.822569 -0.260043 1 1 1
-2.030257 2.170339 0.155752 57 57 57
-0.772525 0.825828 -0.219812 1 1 1
-1.994002 2.131583 0.255366 73 73 73
-2.144310 2.292261 -0.497149 95 95 95
-1.963645 2.099131 0.352934 80 80 80
-2.183335 2.333979 -0.392419 97 97 97
-1.931093 2.064334 0.447715 58 58 58
-2.203610 2.355653 -0.282210 116 116 116
-1.879007 2.008653 0.534647 82 82 82
-2.138046 2.285566 -0.164021 56 56 56
-1.851803 1.979572 0.625814 77 77 77
-2.107868 2.253306 -0.053858 68 68 68
-1.818598 1.944076 0.713305 83 83 83
-0.742688 0.805126 -0.293501 0 0 0
-2.064969 2.238569 0.053160 78 78 78
-0.742575 0.805002 -0.252845 1 1 1
-2.029952 2.200609 0.156903 71 71 71
-0.757423 0.821099 -0.217141 1 1 1
-1.985827 2.152774 0.256238 70 70 70
-2.125576 2.304272 -0.496523 92 92 92
-1.954327 2.118625 0.353909 80 80 80
-2.153528 2.334573 -0.389982 90 90 90
-1.927350 2.089380 0.450218 53 53 53
-2.187111 2.370980 -0.282210 102 102 102
-1.880912 2.039039 0.539226 78 78 78
-2.136934 2.316585 -0.165172 59 59 59
-1.837938 1.992452 0.625814 77 77 77
-2.105645 2.282665 -0.054207 70 70 70
-1.825939 1.979445 0.721587 85 85 85
-0.747928 0.810806 -0.295571 0 0 0
-2.082595 2.257677 0.053614 83 83 83
-0.757109 0.820758 -0.257794 1 1 1
-2.035369 2.206481 0.157322 79 79 79
-0.762748 0.826871 -0.218667 1 1 1
-2.002038 2.170347 0.258330 68 68 68
-2.125576 2.304272 -0.496523 90 90 90
-1.965094 2.130298 0.355858 75 75 75
-2.150836 2.331655 -0.389494 90 90 90
-1.930028 2.092284 0.450844 64 64 64
-2.191164 2.375373 -0.282733 103 103 103
-1.899548 2.059242 0.544569 79 79 79
-2.150477 2.331265 -0.166219 57 57 57
-1.853794 2.009641 0.631213 77 77 77
-2.102933 2.279725 -0.054137 68 68 68
-1.831179 1.985125 0.723658 83 83 83
-0.739507 0.813278 -0.294536 0 0 0
-2.079839 2.287317 0.053963 87 87 87
-0.763016 0.839131 -0.261843 1 1 1
-2.038339 2.241677 0.158787 79 79 79
-0.756811 0.832308 -0.218667 1 1 1
-1.986456 2.184618 0.258330 68 68 68
-2.111691 2.322346 -0.497149 95 95 95
-1.964490 2.160461 0.358540 77 77 77
-2.134096 2.346986 -0.389494 90 90 90
-1.915007 2.106042 0.450844 61 61 61
-2.154004 2.368881 -0.280119 93 93 93
-1.897972 2.087307 0.548385 79 79 79
-2.155238 2.370237 -0.167894 61 61 61
-1.847232 2.031505 0.633912 77 77 77
-2.105400 2.315428 -0.054626 68 68 68
-1.816927 1.998177 0.723658 80 80 80
-0.735608 0.808990 -0.292983 0 0 0
-2.066386 2.272522 0.053614 75 75 75
-0.764327 0.840573 -0.262293 1 1 1
-2.051776 2.256454 0.159834 79 79 79
-0.756811 0.832308 -0.218667 1 1 1
-1.997179 2.196411 0.259724 68 68 68
-2.101059 2.310654 -0.494646 97 97 97
-1.971168 2.167805 0.359758 75 75 75
-2.128754 2.341111 -0.388519 90 90 90
-1.930954 2.123580 0.454599 61 61 61
-2.154004 2.368881 -0.280119 91 91 91
-1.895330 2.084402 0.547622 79 79 79
-2.171362 2.387970 -0.169150 109 109 109
-1.862964 2.048807 0.639311 79 79 79
-2.117508 2.328743 -0.054940 72 72 72
-1.824725 2.006753 0.726764 81 81 81
-0.732807 0.816727 -0.294018 0 0 0
-2.064624 2.301061 0.053963 75 75 75
-0.739213 0.823867 -0.255544 1 1 1
-2.046102 2.280418 0.160567 76 76 76
-0.748652 0.834387 -0.217904 1 1 1
-1.999866 2.228887 0.261990 71 71 71
-2.080411 2.318656 -0.493394 100 100 100
-1.966027 2.191173 0.361464 77 77 77
-2.115832 2.358133 -0.389007 90 90 90
-1.927382 2.148102 0.457102 60 60 60
-2.135585 2.380148 -0.279770 93 93 93
-1.891954 2.108617 0.550675 74 74 74
-2.154143 2.400832 -0.169045 107 107 107
-1.862349 2.075622 0.643810 75 75 75
-2.110029 2.351666 -0.055150 72 72 72
-1.826857 2.036066 0.732976 85 85 85
-0.732807 0.816727 -0.294018 0 0 0
-2.079314 2.317433 0.054347 68 68 68
-0.735309 0.819515 -0.254195 1 1 1
-2.046102 2.280418 0.160567 76 76 76
-0.761764 0.849000 -0.221720 1 1 1
-2.010510 2.240750 0.263385 67 67 67
-2.075134 2.312775 -0.492143 97 97 97
-1.970004 2.195605 0.362196 70 70 70
-2.101249 2.341880 -0.386326 86 86 86
-1.937935 2.159864 0.459604 60 60 60
-2.135585 2.380148 -0.279770 86 86 86
-1.905065 2.123230 0.554491 73 73 73
-2.156811 2.403805 -0.169254 107 107 107
-1.867555 2.081424 0.645610 73 73 73
-2.130061 2.373992 -0.055673 75 75 75
-1.839759 2.050445 0.738152 80 80 80
-0.721825 0.816161 -0.291948 0 0 0
-2.083874 2.356220 0.054905 69 69 69
-0.742336 0.839354 -0.258694 1 1 1
-2.037671 2.303978 0.161195 76 76 76
-0.734859 0.830899 -0.215614 1 1 1
-2.006304 2.268512 0.264953 62 62 62
-2.061149 2.330524 -0.492769 97 97 97
-1.967393 2.224516 0.364633 70 70 70
-2.080492 2.352396 -0.385595 90 90 90
-1.925048 2.176636 0.460230 60 60 60
-2.113219 2.389399 -0.279073 86 86 86
-1.897627 2.145631 0.556781 67 67 67
-2.136908 2.416185 -0.169045 90 90 90
-1.857777 2.100574 0.647409 72 72 72
-2.115669 2.392170 -0.055743 75 75 75
-1.830158 2.069345 0.740222 73 73 73
-0.729504 0.824844 -0.295054 0 0 0
-2.089173 2.362211 0.055045 69 69 69
-0.743627 0.840813 -0.259144 1 1 1
-2.053549 2.321931 0.162451 73 73 73
-0.727055 0.822075 -0.213324 1 1 1
-2.011584 2.274481 0.265651 70 70 70
-2.059840 2.329045 -0.492456 100 100 100
-1.980544 2.239386 0.367070 71 71 71
-2.080492 2.352396 -0.385595 90 90 90
-1.932900 2.185514 0.462107 63 63 63
-2.102659 2.377460 -0.277678 93 93 93
-1.905430 2.154455 0.559070 68 68 68
-2.138231 2.417681 -0.169150 81 81 81
-1.865523 2.109332 0.650109 73 73 73
-2.120968 2.398161 -0.055883 86 86 86
-1.830158 2.069345 0.740222 80 80 80
-0.723727 0.829917 -0.295054 0 0 0
-2.079202 2.384274 0.055219 67 67 67
-0.728774 0.835703 -0.255994 1 1 1
-2.049103 2.349758 0.163393 70 70 70
-0.726460 0.833050 -0.214851 1 1 1
-1.996965 2.289971 0.265825 66 66 66
-2.038337 2.337413 -0.491204 100 100 100
-1.975300 2.265127 0.369020 77 77 77
-2.066628 2.369855 -0.386082 90 90 90
-1.933175 2.216820 0.465862 63 63 63
-2.086010 2.392081 -0.277678 91 91 91
-1.892924 2.170664 0.559834 67 67 67
-2.118675 2.429539 -0.168940 85 85 85
-1.863560 2.136992 0.654608 64 64 64
-2.125202 2.437024 -0.056441 103 103 103
-1.825825 2.093720 0.744364 76 76 76
-0.703412 0.806621 -0.286772 0 0 0
-2.089717 2.396331 0.055499 73 73 73
-0.715966 0.821016 -0.251495 1 1 1
-2.056979 2.358790 0.164021 68 68 68
-0.744524 0.853765 -0.220194 1 1 1
-2.019226 2.315498 0.268788 67 67 67
-2.025354 2.322525 -0.488076 100 100 100
-1.976604 2.266623 0.369264 74 74 74
-2.061409 2.363871 -0.385107 93 93 93
-1.948754 2.234686 0.469616 68 68 68
-2.080772 2.386075 -0.276981 93 93 93
-1.898085 2.176583 0.561360 67 67 67
-2.102923 2.411475 -0.167684 85 85 85
-1.868683 2.142867 0.656407 60 60 60
-2.143602 2.458124 -0.056930 103 103 103
-1.841061 2.111192 0.750575 73 73 73
-0.707984 0.823107 -0.290913 0 0 0
-2.091613 2.431725 0.055987 73 73 73
-0.705278 0.819961 -0.249696 1 1 1
-2.044783 2.377279 0.164335 66 66 66
-0.738696 0.858813 -0.220194 1 1 1
-2.013813 2.341273 0.270183 70 70 70
-2.012075 2.339253 -0.488701 100 100 100
-1.971486 2.292064 0.371214 74 74 74
-2.034916 2.365808 -0.383157 93 93 93
-1.948956 2.265870 0.473371 64 64 64
-2.064483 2.400183 -0.276981 86 86 86
-1.896028 2.204336 0.565176 67 67 67
-2.086460 2.425733 -0.167684 83 83 83
-1.857866 2.159969 0.657757 64 64 64
-2.126821 2.472658 -0.056930 103 103 103
-1.839246 2.138320 0.755752 66 66 66
-0.715542 0.831895 -0.294018 0 0 0
-2.105957 2.448401 0.056371 78 78 78
-0.716714 0.833257 -0.253745 1 1 1
-2.057807 2.392421 0.165382 64 64 64
-0.743817 0.864767 -0.221720 1 1 1
-2.030703 2.360910 0.272449 75 75 75
-2.013363 2.340750 -0.489014 100 100 100
-1.981842 2.304104 0.373164 74 74 74
-2.029738 2.359788 -0.382182 97 97 97
-1.951532 2.268865 0.473996 67 67 67
-2.061884 2.397162 -0.276632 88 88 88
-1.911391 2.222197 0.569756 70 70 70
-2.086460 2.425733 -0.167684 81 81 81
-1.868032 2.171788 0.661356 64 64 64
-2.113781 2.457497 -0.056581 100 100 100
-1.841765 2.141250 0.756787 66 66 66
-0.697222 0.822136 -0.288842 0 0 0
-2.109507 2.487445 0.056930 100 100 100
-0.720963 0.850131 -0.257344 1 1 1
-2.057848 2.426531 0.166742 68 68 68
-0.737761 0.869938 -0.221720 1 1 1
-2.006439 2.365912 0.271403 67 67 67
-1.989306 2.345710 -0.487137 100 100 100
-1.982399 2.337565 0.376333 82 82 82
-2.010646 2.370872 -0.381695 97 97 97
-1.945866 2.294487 0.476499 63 63 63
-2.037367 2.402381 -0.275586 95 95 95
-1.905989 2.247465 0.572809 76 76 76
-2.066891 2.437194 -0.167475 85 85 85
-1.865429 2.199639 0.665855 69 69 69
-2.088813 2.463044 -0.056371 100 100 100
-1.829271 2.157002 0.757822 68 68 68
-0.694723 0.819189 -0.287807 0 0 0
-2.113387 2.492020 0.057034 113 113 113
-0.722224 0.851617 -0.257794 1 1 1
-2.073350 2.444810 0.167998 70 70 70
-0.751729 0.886409 -0.225918 3 3 3
-2.023192 2.385666 0.273669 70 70 70
-1.980363 2.335164 -0.484947 100 100 100
-1.992671 2.349677 0.378282 77 77 77
-2.014498 2.375414 -0.382426 100 100 100
-1.958643 2.309552 0.479628 59 59 59
-2.032212 2.396302 -0.274889 93 93 93
-1.911068 2.253454 0.574335 76 76 76
-2.066891 2.437194 -0.167475 85 85 85
-1.874252 2.210042 0.669004 69 69 69
-2.084933 2.458468 -0.056267 100 100 100
-1.838017 2.167316 0.761446 73 73 73
-0.694089 0.829826 -0.289877 0 0 0
-2.092527 2.501746 0.056930 119 119 119
-0.693905 0.829607 -0.249696 1 1 1
-2.070756 2.475718 0.169150 73 73 73
-0.744419 0.889999 -0.225536 4 4 4
-2.020967 2.416193 0.275586 66 66 66
-1.963155 2.347074 -0.484634 100 100 100
-1.975357 2.361663 0.378039 74 74 74
-1.994462 2.384503 -0.381695 93 93 93
-1.950481 2.331922 0.481505 58 58 58
-2.022246 2.417721 -0.275761 99 99 99
-1.900724 2.272434 0.575862 76 76 76
-2.034877 2.432822 -0.166219 87 87 87
-1.876670 2.243676 0.675303 80 80 80
-2.068150 2.472603 -0.056267 100 100 100
-1.834377 2.193113 0.766104 72 72 72
-0.691610 0.826863 -0.288842 0 0 0
-2.096376 2.506348 0.057034 119 119 119
-0.700157 0.837081 -0.251945 1 1 1
-2.073319 2.478782 0.169359 73 73 73
-0.754495 0.902046 -0.228589 5 5 5
-2.033750 2.431475 0.277330 65 65 65
-1.964422 2.348589 -0.484947 100 100 100
-1.985546 2.373845 0.379989 74 74 74
-1.984273 2.372322 -0.379745 97 97 97
-1.963155 2.347074 0.484634 58 58 58
-2.015854 2.410080 -0.274889 93 93 93
-1.910801 2.284481 0.578914 75 75 75
-2.032314 2.429758 -0.166010 85 85 85
-1.874169 2.240686 0.674403 66 66 66
-2.065584 2.469535 -0.056197 100 100 100
-1.844293 2.204967 0.770245 68 68 68
-0.698111 0.846575 -0.294018 0 0 0
-2.078827 2.520922 0.057034 103 103 103
-0.690576 0.837438 -0.250595 1 1 1
-2.069941 2.510146 0.170511 79 79 79
-0.750678 0.910321 -0.229352 9 9 9
-2.029402 2.460986 0.279073 65 65 65
-1.945465 2.359198 -0.484321 100 100 100
-1.985344 2.407558 0.383157 77 77 77
-1.963874 2.381522 -0.379014 100 100 100
-1.946721 2.360722 0.484634 58 58 58
-1.991374 2.414871 -0.273843 93 93 93
-1.914790 2.322000 0.585020 72 72 72
-2.012760 2.440805 -0.165800 83 83 83
-1.870879 2.268750 0.678902 75 75 75
-2.035571 2.468467 -0.055848 100 100 100
-1.842374 2.234184 0.775939 71 71 71
-0.691966 0.839123 -0.291430 0 0 0
-2.071194 2.511666 0.056825 100 100 100
-0.702974 0.852473 -0.255094 3 3 3
-2.085189 2.528637 0.171767 100 100 100
-0.764417 0.926983 -0.233550 9 9 9
-2.034472 2.467134 0.279770 65 65 65
-1.945465 2.359198 -0.484321 100 100 100
-2.000499 2.425937 0.386082 71 71 71
-1.963874 2.381522 -0.379014 100 100 100
-1.959289 2.375963 0.487763 60 60 60
-1.981233 2.402574 -0.272449 95 95 95
-1.927281 2.337147 0.588837 72 72 72
-2.015302 2.443887 -0.166010 83 83 83
-1.885756 2.286792 0.684301 77 77 77
-2.033027 2.465382 -0.055778 100 100 100
-1.847291 2.240146 0.778010 78 78 78
-0.689747 0.848431 -0.292983 0 0 0
-2.046040 2.516754 0.056616 100 100 100
-0.690859 0.849799 -0.252845 4 4 4
-2.076304 2.553981 0.172499 109 109 109
-0.769073 0.946007 -0.236985 6 6 6
-2.025996 2.492099 0.280990 67 67 67
-1.920224 2.361993 -0.482131 100 100 100
-1.997289 2.456787 0.388763 66 66 66
-1.947200 2.395175 -0.379014 100 100 100
-1.953869 2.403378 0.490578 64 64 64
-1.961899 2.413255 -0.272100 100 100 100
-1.910917 2.350545 0.588837 71 71 71
-1.998191 2.457897 -0.166010 83 83 83
-1.884497 2.318047 0.689700 73 73 73
-2.015766 2.479515 -0.055778 100 100 100
-1.842574 2.266479 0.782669 77 77 77
-0.694621 0.854427 -0.295054 1 1 1
-2.048563 2.519857 0.056685 106 106 106
-0.669962 0.824094 -0.245197 2 2 2
-2.081344 2.560180 0.172918 118 118 118
-0.764119 0.939913 -0.235458 4 4 4
-2.043592 2.513743 0.283430 70 70 70
-1.912748 2.352797 -0.480254 100 100 100
-2.002297 2.462948 0.389738 68 68 68
-1.944695 2.392094 -0.378526 100 100 100
-1.962591 2.414107 0.492769 64 64 64
-1.959385 2.410163 -0.271752 93 93 93
-1.920825 2.362732 0.591890 68 68 68
-1.985592 2.442399 -0.164963 87 87 87
-1.891873 2.327119 0.692399 66 66 66
-2.014504 2.477963 -0.055743 100 100 100
-1.847449 2.272475 0.784739 74 74 74
-0.688639 0.859255 -0.295054 0 0 0
-2.028420 2.530977 0.056616 102 102 102
-0.677598 0.845478 -0.250146 1 1 1
-2.048431 2.555946 0.171662 104 104 104
-0.730528 0.911522 -0.227063 2 2 2
-2.038453 2.543495 0.285174 70 70 70
-1.901217 2.372258 -0.481505 100 100 100
-1.992503 2.486161 0.391201 66 66 66
-1.925465 2.402514 -0.378039 100 100 100
-1.962985 2.449330 0.497149 60 60 60
-1.942511 2.423783 -0.271752 91 91 91
-1.914106 2.388340 0.594942 67 67 67
-1.963497 2.449968 -0.164544 85 85 85
-1.875581 2.340270 0.692399 65 65 65
-1.993404 2.487285 -0.055638 100 100 100
-1.848453 2.306421 0.791986 71 71 71
-0.723675 0.902971 -0.310065 0 0 0
-2.032172 2.535658 0.056720 107 107 107
-0.684910 0.854602 -0.252845 1 1 1
-2.048431 2.555946 0.171662 100 100 100
-0.732983 0.914586 -0.227826 1 1 1
-2.058389 2.568371 0.287963 92 92 92
-1.899982 2.370717 -0.481192 100 100 100
-2.001193 2.497004 0.392907 63 63 63
-1.918017 2.393220 -0.376576 100 100 100
-1.965456 2.452413 0.497774 60 60 60
-1.942511 2.423783 -0.271752 95 95 95
-1.928839 2.406724 0.599522 65 65 65
-1.958500 2.443734 -0.164126 85 85 85
-1.885330 2.352435 0.695999 65 65 65
-1.990903 2.484165 -0.055568 100 100 100
-1.860534 2.321496 0.797163 68 68 68
-0.746261 0.944252 -0.322489 0 0 0
-2.002466 2.533743 0.056371 96 96 96
-0.683910 0.865359 -0.254645 1 1 1
-2.028510 2.566696 0.171453 100 100 100
-2.054448 2.599517 0.289880 115 115 115
-1.885026 2.385144 -0.481505 100 100 100
-2.005075 2.537044 0.397050 68 68 68
-1.901682 2.406220 -0.376576 100 100 100
-1.956066 2.475033 0.499652 60 60 60
-1.918556 2.427570 -0.270706 100 100 100
-1.924585 2.435200 0.603338 72 72 72
-1.949252 2.466410 -0.164754 87 87 87
-1.883774 2.383561 0.701397 62 62 62
-1.964029 2.485107 -0.055289 100 100 100
-1.847085 2.337138 0.798198 70 70 70
-0.704336 0.891204 -0.304371 0 0 0
-1.997506 2.527467 0.056232 100 100 100
-0.681494 0.862302 -0.253745 1 1 1
-2.023556 2.560428 0.171034 100 100 100
-1.847894 2.338161 -0.579296 90 90 90
-2.047036 2.590138 0.288834 109 109 109
-1.870328 2.366547 -0.477751 100 100 100
-2.016152 2.551060 0.399244 77 77 77
-1.901682 2.406220 -0.376576 100 100 100
-1.973214 2.496730 0.504032 57 57 57
-1.909908 2.416628 -0.269486 99 99 99
-1.929455 2.441361 0.604865 75 75 75
-1.944298 2.460142 -0.164335 87 87 87
-1.893441 2.395792 0.704997 67 67 67
-1.964029 2.485107 -0.055289 100 100 100
-1.854272 2.346232 0.801304 68 68 68
-0.692161 0.888480 -0.301783 1 1 1
-1.977355 2.538196 0.056162 100 100 100
-0.713781 0.916232 -0.268142 1 1 1
-2.008087 2.577644 0.171243 100 100 100
-1.830319 2.349456 -0.578914 96 96 96
-2.035026 2.612224 0.289706 106 106 106
-1.851333 2.376430 -0.477125 100 100 100
-2.001954 2.569772 0.399975 79 79 79
-1.882398 2.416306 -0.376089 100 100 100
-1.972732 2.532261 0.508412 57 57 57
-1.896664 2.434618 -0.270008 95 95 95
-1.919603 2.464064 0.607154 76 76 76
-1.917256 2.461051 -0.163498 87 87 87
-1.888645 2.424325 0.709496 67 67 67
-1.946631 2.498758 -0.055289 100 100 100
-1.849720 2.374359 0.806480 68 68 68
-0.696910 0.894576 -0.303854 1 1 1
-1.977355 2.538196 0.056162 100 100 100
-0.670667 0.860889 -0.251945 1 1 1
-1.994585 2.560313 0.170092 97 97 97
-1.830319 2.349456 -0.578914 100 100 100
-2.025230 2.599650 0.288311 100 100 100
-1.848905 2.373313 -0.476499 100 100 100
-2.017813 2.590129 0.403144 82 82 82
-1.875078 2.406910 -0.374626 100 100 100
-1.982444 2.544728 0.510915 56 56 56
-1.899113 2.437762 -0.270357 100 100 100
-1.934082 2.482649 0.611734 75 75 75
-1.914801 2.457900 -0.163288 87 87 87
-1.891040 2.427400 0.710395 66 66 66
-1.942945 2.494026 -0.055185 100 100 100
-1.861592 2.389599 0.811657 72 72 72
-0.680213 0.885510 -0.299195 0 0 0
-1.960032 2.551596 0.056162 100 100 100
-0.664791 0.865434 -0.251945 1 1 1
-1.979545 2.576998 0.170301 100 100 100
-1.809501 2.355633 -0.577388 100 100 100
-2.007488 2.613375 0.288311 100 100 100
-1.832707 2.385843 -0.476499 97 97 97
-2.020694 2.630566 0.407287 99 99 99
-1.853814 2.413320 -0.373651 100 100 100
-1.968686 2.562862 0.511854 64 64 64
-1.877621 2.444312 -0.269660 100 100 100
-1.931490 2.514439 0.616313 71 71 71
-1.896810 2.469293 -0.163184 90 90 90
-1.881597 2.449488 0.713095 67 67 67
-1.919833 2.499264 -0.055010 100 100 100
-1.854698 2.414471 0.815798 75 75 75
-0.674329 0.877850 -0.296607 1 1 1
-1.955160 2.545253 0.056022 100 100 100
-0.707528 0.921069 -0.268142 1 1 1
-1.974678 2.570662 0.169883 100 100 100
-1.802325 2.346291 -0.575098 100 100 100
-1.997779 2.600735 0.286917 98 98 98
-1.836317 2.390543 -0.477438 100 100 100
-2.035205 2.649457 0.410212 103 103 103
-1.856233 2.416469 -0.374139 100 100 100
-1.979517 2.576961 0.514669 60 60 60
-1.869125 2.433252 -0.268440 99 99 99
-1.948233 2.536236 0.621656 72 72 72
-1.898027 2.470877 -0.163288 85 85 85
-1.893468 2.464942 0.717594 66 66 66
-1.914960 2.492921 -0.054870 100 100 100
-1.859406 2.420599 0.817868 71 71 71
-0.666005 0.879340 -0.295571 2 2 2
-1.931753 2.550532 0.055848 102 102 102
-0.708301 0.935185 -0.270841 1 1 1
-1.961958 2.590412 0.170301 100 100 100
-1.786313 2.358505 -0.575098 100 100 100
-1.975218 2.607920 0.286219 98 98 98
-1.810462 2.390389 -0.474935 100 100 100
-2.023116 2.671161 0.411431 100 100 100
-1.839741 2.429048 -0.374139 100 100 100
-1.971471 2.602973 0.517172 59 59 59
-1.847707 2.439565 -0.267742 99 99 99
-1.930925 2.549439 0.621656 71 71 71
-1.879958 2.482147 -0.163184 90 90 90
-1.895471 2.502629 0.724792 65 65 65
-1.897947 2.505898 -0.054870 100 100 100
-1.845219 2.436280 0.818903 72 72 72
-0.669504 0.883960 -0.297124 3 3 3
-1.925716 2.542561 0.055673 100 100 100
-0.717714 0.947612 -0.274440 1 1 1
-1.961958 2.590412 0.170301 100 100 100
-1.783942 2.355375 -0.574335 100 100 100
-1.983639 2.619038 0.287440 100 100 100
-1.808077 2.387240 -0.474309 100 100 100
-2.013528 2.658502 0.409481 100 100 100
-1.837344 2.425883 -0.373651 100 100 100
-1.991747 2.629743 0.522491 64 64 64
-1.846504 2.437977 -0.267568 93 93 93
-1.938037 2.558829 0.623945 68 68 68
-1.866694 2.464633 -0.162032 81 81 81
-1.907237 2.518163 0.729291 66 66 66
-1.897947 2.505898 -0.054870 100 100 100
-1.863881 2.460920 0.827186 71 71 71
-0.666784 0.893257 -0.298677 2 2 2
-1.909115 2.557546 0.055708 96 96 96
-0.685435 0.918244 -0.264542 1 1 1
-1.931878 2.588041 0.169254 100 100 100
-1.774502 2.377211 -0.576625 100 100 100
-1.965306 2.632822 0.287440 100 100 100
-1.790185 2.398221 -0.473996 100 100 100
-1.987795 2.662949 0.408019 100 100 100
-1.813239 2.429106 -0.372189 100 100 100
-1.989882 2.665746 0.526871 64 64 64
-1.836590 2.460388 -0.268614 100 100 100
-1.941265 2.600615 0.630815 65 65 65
-1.849442 2.477605 -0.162032 85 85 85
-1.896605 2.540787 0.731991 63 63 63
-1.882799 2.522291 -0.054940 100 100 100
-1.858212 2.489353 0.832362 71 71 71
-0.674873 0.904093 -0.302301 6 6 6
-1.907919 2.555943 0.055673 100 100 100
-0.697093 0.933860 -0.269041 1 1 1
-1.929489 2.584840 0.169045 102 102 102
-1.760409 2.358332 -0.572045 100 100 100
-1.962923 2.629629 0.287091 100 100 100
-1.791367 2.399804 -0.474309 100 100 100
-1.983045 2.656586 0.407044 100 100 100
-1.808489 2.422743 -0.371214 100 100 100
-1.993427 2.670495 0.527810 87 87 87
-1.833014 2.455598 -0.268091 100 100 100
-1.950660 2.613202 0.633867 62 62 62
-1.849442 2.477605 -0.162032 87 87 87
-1.905930 2.553280 0.735590 61 61 61
-1.875622 2.512677 -0.054731 100 100 100
-1.876701 2.514123 0.840644 70 70 70
-0.662506 0.901234 -0.299712 7 7 7
-1.885578 2.565027 0.055568 100 100 100
-0.711004 0.967207 -0.277140 1 1 1
-1.908123 2.595696 0.168836 100 100 100
-1.743074 2.371173 -0.572045 100 100 100
-1.934153 2.631105 0.285697 100 100 100
-1.767877 2.404913 -0.472745 100 100 100
-1.965869 2.674250 0.407531 100 100 100
-1.791857 2.437534 -0.371458 100 100 100
-1.983158 2.697768 0.530313 101 101 101
-1.805524 2.456126 -0.266697 100 100 100
-1.943080 2.643249 0.637684 68 68 68
-1.828865 2.487877 -0.161823 87 87 87
-1.898705 2.582884 0.740089 62 62 62
-1.851231 2.518302 -0.054556 100 100 100
-1.858221 2.527812 0.840644 71 71 71
-0.676237 0.919912 -0.305924 4 4 4
-1.878472 2.555360 0.055359 100 100 100
-0.713313 0.970348 -0.278040 1 1 1
-1.910489 2.598914 0.169045 100 100 100
-1.743074 2.371173 -0.572045 100 100 100
-1.927073 2.621473 0.284651 100 100 100
-1.766707 2.403321 -0.472432 100 100 100
-1.965869 2.674250 0.407531 100 100 100
-1.782451 2.424738 -0.369508 100 100 100
-1.990178 2.707318 0.532190 102 102 102
-1.799624 2.448099 -0.265825 91 91 91
-1.952383 2.655903 0.640737 68 68 68
-1.830048 2.489486 -0.161927 87 87 87
-1.913710 2.603295 0.745938 57 57 57
-1.852415 2.519913 -0.054591 100 100 100
-1.871952 2.546491 0.846856 68 68 68
-0.714342 0.985376 -0.326112 0 0 0
-1.856788 2.561286 0.055219 100 100 100
-0.732025 1.009768 -0.287937 1 1 1
-1.893211 2.611528 0.169045 100 100 100
-1.725005 2.379502 -0.571282 100 100 100
-1.914322 2.640649 0.285348 100 100 100
-1.744932 2.406989 -0.470868 100 100 100
-1.931778 2.664728 0.404119 100 100 100
-1.774486 2.447757 -0.371214 100 100 100
-1.966382 2.712461 0.530626 100 100 100
-1.783348 2.459981 -0.265825 95 95 95
-1.937030 2.671973 0.641500 71 71 71
-1.804118 2.488632 -0.161090 81 81 81
-1.902121 2.623819 0.748187 63 63 63
-1.835662 2.532143 -0.054591 100 100 100
-1.864093 2.571362 0.850997 66 66 66
-0.731350 1.008837 -0.333877 0 0 0
-1.856788 2.561286 0.055219 100 100 100
-1.701958 2.347711 -0.669454 1 1 1
-1.881488 2.595357 0.167998 100 100 100
-1.725005 2.379502 -0.571282 100 100 100
-1.908475 2.632583 0.284476 91 91 91
-1.742613 2.403790 -0.470242 95 95 95
-1.929448 2.661514 0.403631 100 100 100
-1.768661 2.439721 -0.369995 100 100 100
-1.968700 2.715659 0.531251 90 90 90
-1.786856 2.464820 -0.266348 99 99 99
-1.953162 2.694226 0.646842 78 78 78
-1.797085 2.478930 -0.160462 87 87 87
-1.911272 2.636441 0.751786 62 62 62
-1.834488 2.530524 -0.054556 100 100 100
-1.877700 2.590131 0.857209 66 66 66
-0.734396 1.028066 -0.338535 0 0 0
-1.842349 2.579068 0.055324 100 100 100
-0.713630 0.998997 -0.283438 1 1 1
-1.858680 2.601928 0.167580 100 100 100
-1.699222 2.378707 -0.568229 100 100 100
-1.891208 2.647464 0.284651 100 100 100
-1.728085 2.419112 -0.470868 100 100 100
-1.908512 2.671688 0.403144 93 93 93
-1.743508 2.440702 -0.368289 100 100 100
-1.938211 2.713263 0.528123 88 88 88
-1.769605 2.477235 -0.266348 100 100 100
-1.951423 2.731758 0.652567 100 100 100
-1.784379 2.497916 -0.160881 83 83 83
-1.899616 2.659234 0.754486 63 63 63
-1.810965 2.535134 -0.054382 100 100 100
-1.870801 2.618897 0.862385 67 67 67
-0.734396 1.028066 -0.338535 0 0 0
-1.835375 2.569305 0.055115 100 100 100
-0.734020 1.027540 -0.291537 1 1 1
-1.858680 2.601928 0.167580 100 100 100
-1.696939 2.375512 -0.567466 100 100 100
-1.884259 2.637736 0.283605 100 100 100
-1.726937 2.417505 -0.470555 100 100 100
-1.915436 2.681380 0.404606 100 100 100
-1.748124 2.447163 -0.369264 100 100 100
-1.931322 2.703619 0.526246 86 86 86
-1.759182 2.462644 -0.264779 100 100 100
-1.960553 2.744539 0.655620 100 100 100
-1.784379 2.497916 -0.160881 87 87 87
-1.915474 2.681434 0.760784 63 63 63
-1.801666 2.522117 -0.054102 100 100 100
-1.875293 2.625185 0.864456 66 66 66
-0.718305 1.020530 -0.334394 0 0 0
-1.811638 2.573879 0.054940 100 100 100
-1.842769 2.618107 0.167789 100 100 100
-1.678054 2.384090 -0.566703 100 100 100
-1.861211 2.644309 0.282908 97 97 97
-1.698648 2.413349 -0.467426 91 91 91
-1.889814 2.684947 0.403144 100 100 100
-1.728712 2.456061 -0.368777 100 100 100
-1.919222 2.726729 0.528123 83 83 83
-1.740800 2.473236 -0.264605 99 99 99
-1.944735 2.762975 0.656765 110 110 110
-1.766897 2.510313 -0.160881 85 85 85
-1.912411 2.717051 0.767083 66 66 66
-1.786317 2.537903 -0.054172 100 100 100
-1.868039 2.654010 0.869632 67 67 67
-0.721641 1.025269 -0.335947 0 0 0
-1.808185 2.568973 0.054835 100 100 100
-1.658918 2.356903 -0.665405 86 86 86
-1.840470 2.614841 0.167580 100 100 100
-1.680314 2.387300 -0.567466 100 100 100
-1.857771 2.639422 0.282385 91 91 91
-1.702059 2.418195 -0.468365 95 95 95
-1.878388 2.668714 0.400706 90 90 90
-1.726426 2.452815 -0.368289 100 100 100
-1.912400 2.717036 0.526246 86 86 86
-1.739653 2.471607 -0.264431 93 93 93
-1.935695 2.750132 0.653712 100 100 100
-1.755401 2.493980 -0.159834 83 83 83
-1.928114 2.739361 0.773382 67 67 67
-1.782864 2.532998 -0.054068 100 100 100
-1.881382 2.672967 0.875844 68 68 68
-1.790657 2.581221 0.054835 100 100 100
-1.642837 2.368140 -0.665405 100 100 100
-1.813521 2.614180 0.166742 100 100 100
-1.664025 2.398683 -0.567466 100 100 100
-1.840898 2.653643 0.282559 100 100 100
-1.682182 2.424855 -0.467426 91 91 91
-1.855654 2.674914 0.399731 96 96 96
-1.698376 2.448199 -0.365852 100 100 100
-1.891610 2.726744 0.525620 83 83 83
-1.722789 2.483391 -0.264431 100 100 100
-1.914692 2.760017 0.652948 100 100 100
-1.738384 2.505871 -0.159834 77 77 77
-1.913866 2.758827 0.775181 68 68 68
-1.764441 2.543431 -0.054033 100 100 100
-1.876358 2.704759 0.882055 70 70 70
-1.628600 2.347617 -0.765587 91 91 91
-1.789517 2.579578 0.054801 100 100 100
-1.641726 2.366539 -0.664955 96 96 96
-1.808967 2.607615 0.166324 100 100 100
-1.655073 2.385778 -0.564413 100 100 100
-1.843169 2.656917 0.282908 100 100 100
-1.684434 2.428101 -0.468052 91 91 91
-1.860180 2.681438 0.400706 100 100 100
-1.696113 2.444936 -0.365364 94 94 94
-1.887106 2.720252 0.524368 92 92 92
-1.721654 2.481754 -0.264256 99 99 99
-1.912454 2.756791 0.652185 100 100 100
-1.738384 2.505871 -0.159834 83 83 83
-1.920531 2.768434 0.777881 100 100 100
-1.759882 2.536859 -0.053893 100 100 100
-1.889572 2.723807 0.888267 67 67 67
-1.601951 2.344854 -0.760928 92 92 92
-1.768756 2.589015 0.054731 100 100 100
-1.624750 2.378226 -0.664955 96 96 96
-1.790261 2.620493 0.166324 100 100 100
-1.637958 2.397560 -0.564413 100 100 100
-1.815118 2.656877 0.281513 100 100 100
-1.667016 2.440092 -0.468052 99 99 99
-1.840944 2.694680 0.400706 100 100 100
-1.683053 2.463567 -0.366339 100 100 100
-1.860906 2.723900 0.522491 81 81 81
-1.698231 2.485784 -0.263385 93 93 93
-1.890463 2.767164 0.651422 93 93 93
-1.726042 2.526492 -0.160357 90 90 90
-1.910565 2.796588 0.781930 100 100 100
-1.734915 2.539481 -0.053684 100 100 100
-1.878751 2.750020 0.892408 67 67 67
-1.596502 2.336879 -0.758340 91 91 91
-1.763116 2.580760 0.054556 100 100 100
-1.626948 2.381444 -0.665855 100 100 100
-1.790261 2.620493 0.166324 100 100 100
-1.637958 2.397560 -0.564413 100 100 100
-1.808375 2.647007 0.280467 97 97 97
-1.654758 2.422150 -0.464610 87 87 87
-1.839825 2.693041 0.400463 100 100 100
-1.680814 2.460289 -0.365852 100 100 100
-1.865364 2.730424 0.523743 86 86 86
-1.693736 2.479204 -0.262687 93 93 93
-1.881603 2.754195 0.648369 100 100 100
-1.721535 2.519895 -0.159939 90 90 90
-1.916062 2.804633 0.784179 100 100 100
-1.733787 2.537830 -0.053649 100 100 100
-1.887469 2.762781 0.896549 67 67 67
-1.578661 2.346640 -0.757822 88 88 88
-1.740139 2.586673 0.054417 100 100 100
-1.601164 2.380090 -0.662256 96 96 96
-1.769234 2.629923 0.166114 100 100 100
-1.620760 2.409220 -0.564413 100 100 100
-1.789387 2.659879 0.280467 97 97 97
-1.636281 2.432291 -0.464297 91 91 91
-1.812750 2.694608 0.398756 100 100 100
-1.663165 2.472254 -0.365852 100 100 100
-1.845778 2.743702 0.523743 92 92 92
-1.675952 2.491260 -0.262687 93 93 93
-1.861847 2.767589 0.648369 100 100 100
-1.693426 2.517235 -0.158997 83 83 83
-1.898119 2.821506 0.785079 88 88 88
-1.721164 2.558467 -0.053823 100 100 100
-1.884904 2.801863 0.904831 63 63 63
-1.584052 2.354655 -0.760410 91 91 91
-1.744604 2.593310 0.054556 100 100 100
-1.596813 2.373622 -0.660456 100 100 100
-1.762545 2.619980 0.165486 100 100 100
-1.618568 2.405962 -0.563650 100 100 100
-1.790499 2.661532 0.280641 95 95 95
-1.637383 2.433930 -0.464610 87 87 87
-1.803886 2.681432 0.396807 96 96 96
-1.658733 2.465665 -0.364877 87 87 87
-1.841367 2.737146 0.522491 86 86 86
-1.675952 2.491260 -0.262687 95 95 95
-1.857463 2.761073 0.646842 91 91 91
-1.693426 2.517235 -0.158997 83 83 83
-1.889417 2.808571 0.781480 86 86 86
-1.715583 2.550171 -0.053649 100 100 100
-1.898922 2.822700 0.911561 91 91 91
-1.566266 2.361888 -0.759375 94 94 94
-1.725156 2.601491 0.054486 100 100 100
-1.583189 2.387409 -0.661356 100 100 100
-1.738507 2.621624 0.164858 100 100 100
-1.596066 2.406826 -0.561360 100 100 100
-1.772808 2.673349 0.280641 87 87 87
-1.626664 2.452967 -0.466175 99 99 99
-1.790451 2.699954 0.397782 100 100 100
-1.641247 2.474958 -0.364633 97 97 97
-1.816623 2.739421 0.520614 92 92 92
-1.659392 2.502321 -0.262687 93 93 93
-1.839111 2.773331 0.646842 91 91 91
-1.677797 2.530076 -0.159101 90 90 90
-1.862132 2.808047 0.777881 93 93 93
-1.695316 2.556494 -0.053544 100 100 100
-1.894039 2.856162 0.918290 105 105 105
-1.559860 2.352228 -0.756269 94 94 94
-1.725156 2.601491 0.054486 100 100 100
-1.585343 2.390657 -0.662256 96 96 96
-1.742923 2.628282 0.165277 100 100 100
-1.593896 2.403554 -0.560597 100 100 100
-1.763999 2.660065 0.279247 87 87 87
-1.623388 2.448028 -0.465236 95 95 95
-1.794839 2.706572 0.398756 100 100 100
-1.639052 2.471649 -0.364146 94 94 94
-1.812256 2.732836 0.519362 88 88 88
-1.654988 2.495679 -0.261990 91 91 91
-1.836940 2.770059 0.646079 93 93 93
-1.678901 2.531740 -0.159206 83 83 83
-1.866440 2.814544 0.779680 86 86 86
-1.690896 2.549827 -0.053404 97 97 97
-1.889768 2.849722 0.916219 100 100 100
-1.537062 2.353356 -0.753163 94 94 94
-1.701484 2.605100 0.054312 102 102 102
-1.566483 2.398403 -0.661356 96 96 96
-1.724531 2.640386 0.165277 95 95 95
-1.577077 2.414623 -0.560597 100 100 100
-1.741027 2.665643 0.278550 91 91 91
-1.598697 2.447725 -0.463046 99 99 99
-1.769387 2.709064 0.397294 93 93 93
-1.622843 2.484693 -0.364389 87 87 87
-1.793133 2.745421 0.519362 86 86 86
-1.633166 2.500500 -0.261293 85 85 85
-1.817557 2.782816 0.646079 100 100 100
-1.656817 2.536710 -0.158787 87 87 87
-1.846745 2.827505 0.779680 86 86 86
-1.673054 2.561570 -0.053404 100 100 100
-1.863489 2.853141 0.913114 100 100 100
-1.543400 2.363061 -0.756269 94 94 94
-1.699297 2.601751 0.054242 106 106 106
-1.560090 2.388614 -0.658657 100 100 100
-1.724531 2.640386 0.165277 100 100 100
-1.577077 2.414623 -0.560597 100 100 100
-1.743206 2.668979 0.278898 87 87 87
-1.596537 2.444417 -0.462420 100 100 100
-1.762874 2.699092 0.395832 93 93 93
-1.621757 2.483031 -0.364146 94 94 94
-1.793133 2.745421 0.519362 86 86 86
-1.633166 2.500500 -0.261293 85 85 85
-1.811116 2.772953 0.643790 96 96 96
-1.653540 2.531694 -0.158473 85 85 85
-1.844614 2.824242 0.778781 88 88 88
