-0.818118 1.430251 0.144156 34 34 34
-0.740514 1.294581 -0.236216 29 29 29
-0.835820 1.461198 0.206690 41 41 41
-0.751055 1.313010 -0.185729 37 37 37
-0.853307 1.491769 0.272196 100 100 100
-0.757773 1.324755 -0.133523 32 32 32
-0.862693 1.508177 0.337732 92 92 92
-0.769542 1.345329 -0.081225 58 58 58
-0.888245 1.552849 0.413010 94 94 94
-0.779417 1.362593 -0.027400 35 35 35
-0.893017 1.561191 0.481921 85 85 85
-0.697772 1.238851 -0.380982 40 40 40
-0.782139 1.388640 0.027819 33 33 33
-0.707697 1.256473 -0.332928 28 28 28
-0.797849 1.416532 0.085203 54 54 54
-0.717785 1.274384 -0.284305 32 32 32
-0.815459 1.447797 0.145376 35 35 35
-0.728034 1.292580 -0.234965 29 29 29
-0.822214 1.459791 0.205715 41 41 41
-0.736486 1.307585 -0.184266 37 37 37
-0.846303 1.502559 0.273135 100 100 100
-0.752882 1.336695 -0.134220 33 33 33
-0.854598 1.517287 0.338495 95 95 95
-0.758642 1.346923 -0.081016 58 58 58
-0.872189 1.548518 0.410311 94 94 94
-0.772326 1.371217 -0.027470 36 36 36
-0.888332 1.577178 0.485027 85 85 85
-0.701564 1.245584 -0.383052 40 40 40
-0.789009 1.400836 0.028063 35 35 35
-0.712479 1.264963 -0.335177 30 30 30
-0.798829 1.418272 0.085308 50 50 50
-0.715859 1.270963 -0.283542 31 31 31
-0.817414 1.451269 0.145724 35 35 35
-0.733851 1.302907 -0.236842 29 29 29
-0.828059 1.470168 0.207178 40 40 40
-0.738434 1.311044 -0.184754 40 40 40
-0.842425 1.495675 0.271883 100 100 100
-0.754837 1.340167 -0.134568 32 32 32
-0.856525 1.520708 0.339258 77 77 77
-0.764523 1.357364 -0.081644 52 52 52
-0.873145 1.550216 0.410761 91 91 91
-0.768400 1.364247 -0.027330 35 35 35
-0.892124 1.583911 0.487097 82 82 82
-0.689825 1.245502 -0.381499 42 42 42
-0.781871 1.411694 0.028168 37 37 37
-0.705297 1.273438 -0.336077 29 29 29
-0.792530 1.430940 0.085726 52 52 52
-0.706745 1.276053 -0.283542 30 30 30
-0.805078 1.453595 0.145376 32 32 32
-0.728337 1.315037 -0.238093 30 30 30
-0.821365 1.483002 0.208153 40 40 40
-0.732881 1.323241 -0.185729 36 36 36
-0.834572 1.506849 0.272822 100 100 100
-0.741367 1.338563 -0.133871 31 31 31
-0.850377 1.535385 0.341166 85 85 85
-0.758662 1.369789 -0.082063 50 50 50
-0.868639 1.568357 0.413910 85 85 85
-0.760556 1.373209 -0.027400 37 37 37
-0.878895 1.586875 0.486062 85 85 85
-0.688889 1.243812 -0.380982 40 40 40
-0.777027 1.402948 0.027994 35 35 35
-0.709074 1.280257 -0.337876 31 31 31
-0.796401 1.437929 0.086145 52 52 52
-0.710550 1.282923 -0.285069 31 31 31
-0.807974 1.458824 0.145899 33 33 33
-0.724508 1.308124 -0.236842 30 30 30
-0.829059 1.496895 0.210103 38 38 38
-0.736728 1.330187 -0.186704 36 36 36
-0.837444 1.512033 0.273760 100 100 100
-0.741367 1.338563 -0.133871 32 32 32
-0.850377 1.535385 0.341166 82 82 82
-0.763500 1.378525 -0.082586 48 48 48
-0.874304 1.578586 0.416609 82 82 82
-0.764431 1.380207 -0.027540 37 37 37
-0.878895 1.586875 0.486062 85 85 85
-0.685514 1.258890 -0.384087 40 40 40
-0.769836 1.413741 0.028098 37 37 37
-0.695235 1.276741 -0.335627 28 28 28
-0.788002 1.447099 0.086354 50 50 50
-0.706985 1.298319 -0.287358 28 28 28
-0.806090 1.480317 0.147468 41 41 41
-0.715129 1.313275 -0.236842 31 31 31
-0.813580 1.494072 0.208884 47 47 47
-0.727190 1.335425 -0.186704 36 36 36
-0.829437 1.523191 0.274699 99 99 99
-0.739392 1.357832 -0.135266 33 33 33
-0.839369 1.541431 0.341166 85 85 85
-0.748840 1.375183 -0.082063 52 52 52
-0.862986 1.584802 0.416609 85 85 85
-0.756448 1.389154 -0.027610 35 35 35
-0.873060 1.603303 0.489168 82 82 82
-0.685514 1.258890 -0.384087 39 39 39
-0.775574 1.424278 0.028308 37 37 37
-0.698963 1.283587 -0.337427 27 27 27
-0.784181 1.440083 0.085936 50 50 50
-0.706985 1.298319 -0.287358 29 29 29
-0.809901 1.487316 0.148165 51 51 51
-0.720797 1.323684 -0.238719 29 29 29
-0.817377 1.501045 0.209859 67 67 67
-0.723393 1.328451 -0.185729 36 36 36
-0.832271 1.528396 0.275638 95 95 95
-0.739392 1.357832 -0.135266 33 33 33
-0.841247 1.544879 0.341930 82 82 82
-0.748840 1.375183 -0.082063 52 52 52
-0.858326 1.576244 0.414360 79 79 79
-0.756448 1.389154 -0.027610 36 36 36
-0.874908 1.606696 0.490203 82 82 82
-0.678754 1.266932 -0.385123 40 40 40
-0.773416 1.443625 0.028587 38 38 38
-0.686528 1.281444 -0.335627 26 26 26
-0.775304 1.447148 0.086040 46 46 46
-0.694423 1.296179 -0.285832 30 30 30
-0.805404 1.503331 0.149211 60 60 60
-0.711771 1.328560 -0.238719 26 26 26
-0.813703 1.518823 0.211565 93 93 93
-0.718084 1.340344 -0.186704 33 33 33
-0.819982 1.530543 0.275012 100 100 100
-0.732014 1.366346 -0.135614 31 31 31
-0.839056 1.566145 0.345364 88 88 88
-0.744178 1.389051 -0.082586 48 48 48
-0.852178 1.590639 0.416609 82 82 82
-0.746975 1.394271 -0.027610 32 32 32
-0.873075 1.629643 0.495380 77 77 77
-0.678754 1.266932 -0.385123 39 39 39
-0.772472 1.441863 0.028552 35 35 35
-0.694811 1.296903 -0.339676 29 29 29
-0.780020 1.455951 0.086564 48 48 48
-0.694423 1.296179 -0.285832 29 29 29
-0.792231 1.478744 0.146770 62 62 62
-0.719234 1.342490 -0.241222 31 31 31
-0.815578 1.522323 0.212053 91 91 91
-0.719959 1.343843 -0.187191 36 36 36
-0.820915 1.532284 0.275325 99 99 99
-0.730132 1.362833 -0.135266 33 33 33
-0.840910 1.569606 0.346128 88 88 88
-0.748894 1.397853 -0.083109 50 50 50
-0.855860 1.597510 0.418409 85 85 85
-0.748863 1.397796 -0.027680 35 35 35
-0.865776 1.616020 0.491239 77 77 77
-0.666291 1.264803 -0.383052 40 40 40
-0.755863 1.434836 0.028308 33 33 33
-0.684831 1.299998 -0.339226 26 26 26
-0.773560 1.468429 0.086982 48 48 48
-0.689017 1.307944 -0.287358 30 30 30
-0.786531 1.493053 0.147642 65 65 65
-0.700637 1.330001 -0.238093 27 27 27
-0.804931 1.527979 0.212053 94 94 94
-0.712410 1.352349 -0.187679 36 36 36
-0.814801 1.546716 0.276889 95 95 95
-0.724315 1.374948 -0.135963 33 33 33
-0.829932 1.575438 0.346128 92 92 92
-0.740979 1.406582 -0.083319 50 50 50
-0.847411 1.608619 0.419759 79 79 79
-0.739087 1.402990 -0.027680 33 33 33
-0.856274 1.625443 0.492274 80 80 80
-0.669893 1.271640 -0.385123 39 39 39
-0.758659 1.440143 0.028413 36 36 36
-0.683015 1.296550 -0.338326 28 28 28
-0.777283 1.475497 0.087401 46 46 46
-0.692677 1.314892 -0.288885 29 29 29
-0.790246 1.500104 0.148339 58 58 58
-0.700637 1.330001 -0.238093 30 30 30
-0.803080 1.524467 0.211565 87 87 87
-0.714260 1.355862 -0.188166 36 36 36
-0.820325 1.557203 0.278766 95 95 95
-0.726172 1.378474 -0.136312 30 30 30
-0.826271 1.568490 0.344601 88 88 88
-0.732601 1.390678 -0.082377 48 48 48
-0.850136 1.613791 0.421108 85 85 85
-0.746543 1.417144 -0.027959 30 30 30
-0.858075 1.628862 0.493309 80 80 80
-0.665441 1.284863 -0.387711 43 43 43
-0.756863 1.461386 0.028727 38 38 38
-0.676635 1.306478 -0.339676 31 31 31
-0.766045 1.479114 0.087296 50 50 50
-0.688898 1.330155 -0.291175 28 28 28
-0.783419 1.512661 0.149036 58 58 58
-0.696786 1.345385 -0.239970 27 27 27
-0.796070 1.537087 0.212540 94 94 94
-0.704777 1.360815 -0.188166 33 33 33
-0.812159 1.568154 0.279705 99 99 99
-0.719280 1.388817 -0.136835 33 33 33
-0.822524 1.588167 0.347654 88 88 88
-0.729304 1.408173 -0.083109 50 50 50
-0.836160 1.614495 0.419759 77 77 77
-0.738471 1.425872 -0.028029 31 31 31
-0.855567 1.651967 0.498485 77 77 77
-0.666329 1.286578 -0.388229 37 37 37
-0.759622 1.466713 0.028831 36 36 36
-0.679324 1.311669 -0.341026 28 28 28
-0.763289 1.473794 0.086982 48 48 48
-0.681675 1.316209 -0.288122 27 27 27
-0.781587 1.509122 0.148688 52 52 52
-0.702236 1.355909 -0.241848 27 27 27
-0.799721 1.544138 0.213515 91 91 91
-0.704777 1.360815 -0.188166 37 37 37
-0.805800 1.555875 0.277515 95 95 95
-0.720196 1.390586 -0.137009 33 33 33
-0.827942 1.598627 0.349944 92 92 92
-0.732060 1.413494 -0.083424 46 46 46
-0.839745 1.621417 0.421558 79 79 79
-0.734792 1.418769 -0.027889 33 33 33
-0.855567 1.651967 0.498485 75 75 75
-0.657556 1.291084 -0.388229 37 37 37
-0.752344 1.477195 0.028936 38 38 38
-0.672149 1.319736 -0.341926 28 28 28
-0.760491 1.493193 0.087820 46 46 46
-0.675373 1.326066 -0.289266 29 29 29
-0.770392 1.512632 0.148513 48 48 48
-0.694784 1.364178 -0.242473 30 30 30
-0.794598 1.560159 0.214978 87 87 87
-0.699102 1.372657 -0.189141 32 32 32
-0.801467 1.573646 0.279705 99 99 99
-0.708905 1.391906 -0.136660 33 33 33
-0.819714 1.609474 0.351089 85 85 85
-0.726954 1.427343 -0.083947 50 50 50
-0.832226 1.634041 0.423358 79 79 79
-0.726933 1.427302 -0.027959 33 33 33
-0.844302 1.657752 0.498485 75 75 75
-0.655803 1.287641 -0.387193 39 39 39
-0.748714 1.470068 0.028796 38 38 38
-0.676571 1.328418 -0.344175 29 29 29
-0.764117 1.500312 0.088238 46 46 46
-0.679828 1.334814 -0.291175 31 31 31
-0.778530 1.528611 0.150082 52 52 52
-0.691198 1.357137 -0.241222 29 29 29
-0.794598 1.560159 0.214978 91 91 91
-0.698201 1.370888 -0.188897 33 33 33
-0.803260 1.577166 0.280331 99 99 99
-0.710714 1.395456 -0.137009 32 32 32
-0.818823 1.607724 0.350707 92 92 92
-0.730579 1.434462 -0.084366 47 47 47
-0.835764 1.640987 0.425157 74 74 74
-0.730563 1.434430 -0.028098 31 31 31
-0.846056 1.661195 0.499521 77 77 77
-0.648527 1.295643 -0.388229 39 39 39
-0.738433 1.475259 0.028796 33 33 33
-0.662919 1.324396 -0.341926 28 28 28
-0.757200 1.512754 0.088657 46 46 46
-0.674008 1.346550 -0.292701 28 28 28
-0.766948 1.532227 0.149908 48 48 48
-0.679938 1.358397 -0.240596 30 30 30
-0.783686 1.565668 0.214978 87 87 87
-0.693945 1.386379 -0.190360 31 31 31
-0.797534 1.593334 0.282208 91 91 91
-0.704522 1.407511 -0.137706 32 32 32
-0.804064 1.606379 0.349180 88 88 88
-0.715183 1.428811 -0.083738 45 45 45
-0.826032 1.650267 0.426057 74 74 74
-0.724111 1.446648 -0.028238 31 31 31
-0.837897 1.673971 0.501591 75 75 75
-0.658039 1.314646 -0.393923 42 42 42
-0.742908 1.484200 0.028971 35 35 35
-0.663791 1.326139 -0.342376 29 29 29
-0.753624 1.505610 0.088238 48 48 48
-0.680159 1.358839 -0.295372 29 29 29
-0.769623 1.537572 0.150431 47 47 47
-0.688780 1.376061 -0.243725 30 30 30
-0.783686 1.565668 0.214978 98 98 98
-0.686836 1.372178 -0.188410 33 33 33
-0.798419 1.595101 0.282521 95 95 95
-0.706305 1.411074 -0.138055 32 32 32
-0.810215 1.618668 0.351852 82 82 82
-0.718759 1.435955 -0.084156 50 50 50
-0.826032 1.650267 0.426057 79 79 79
-0.725902 1.450224 -0.028308 31 31 31
-0.841356 1.680881 0.503662 74 74 74
-0.647992 1.317474 -0.393405 37 37 37
-0.734293 1.492939 0.029041 36 36 36
-0.658817 1.339484 -0.344625 27 27 27
-0.743095 1.510834 0.088238 48 48 48
-0.665457 1.352984 -0.293083 28 28 28
-0.765025 1.555422 0.151651 48 48 48
-0.679156 1.380836 -0.243725 29 29 29
-0.774489 1.574664 0.215465 83 83 83
-0.683373 1.389409 -0.190116 37 37 37
-0.786392 1.598863 0.282208 91 91 91
-0.699954 1.423122 -0.138752 33 33 33
-0.804094 1.634855 0.354141 82 82 82
-0.710480 1.444522 -0.084366 50 50 50
-0.812771 1.652496 0.425157 79 79 79
-0.715759 1.455256 -0.028308 30 30 30
-0.834716 1.697115 0.506768 75 75 75
-0.642876 1.307073 -0.390299 39 39 39
-0.741354 1.507294 0.029320 32 32 32
-0.662258 1.346479 -0.346425 28 28 28
-0.746621 1.518003 0.088657 46 46 46
-0.665457 1.352984 -0.293083 31 31 31
-0.759749 1.544695 0.150605 48 48 48
-0.684387 1.391472 -0.245602 29 29 29
-0.779746 1.585351 0.216927 91 91 91
-0.683373 1.389409 -0.190116 32 32 32
-0.784648 1.595318 0.281582 91 91 91
-0.696437 1.415971 -0.138055 32 32 32
-0.804961 1.636617 0.354523 77 77 77
-0.714006 1.451691 -0.084784 47 47 47
-0.819651 1.666486 0.428757 77 77 77
-0.715759 1.455256 -0.028308 32 32 32
-0.831306 1.690181 0.504697 74 74 74
-0.635417 1.315008 -0.391334 36 36 36
-0.724723 1.499829 0.029076 33 33 33
-0.656233 1.358088 -0.348224 26 26 26
-0.742957 1.537565 0.089494 45 45 45
-0.657704 1.361132 -0.293846 31 31 31
-0.751547 1.555343 0.151128 47 47 47
-0.669500 1.385544 -0.243725 29 29 29
-0.772114 1.597906 0.217902 94 94 94
-0.682293 1.412020 -0.192554 35 35 35
-0.779507 1.613207 0.283772 83 83 83
-0.688268 1.424386 -0.138403 33 33 33
-0.796078 1.647500 0.355668 85 85 85
-0.705592 1.460237 -0.084994 50 50 50
-0.809693 1.675677 0.429657 76 76 76
-0.709063 1.467420 -0.028447 28 28 28
-0.819486 1.695943 0.504697 71 71 71
-0.639619 1.323705 -0.393923 42 42 42
-0.725593 1.501630 0.029111 32 32 32
-0.651146 1.347560 -0.345525 28 28 28
-0.742957 1.537565 0.089494 45 45 45
-0.661120 1.368203 -0.295372 28 28 28
-0.755015 1.562519 0.151825 47 47 47
-0.671219 1.389101 -0.244351 28 28 28
-0.770386 1.594331 0.217415 91 91 91
-0.682293 1.412020 -0.192554 35 35 35
-0.781226 1.616764 0.284398 83 83 83
-0.690002 1.427974 -0.138752 30 30 30
-0.793515 1.642197 0.354523 79 79 79
-0.704723 1.458439 -0.084889 45 45 45
-0.807997 1.672167 0.428757 76 76 76
-0.713413 1.476422 -0.028622 25 25 25
-0.824529 1.706380 0.507803 77 77 77
-0.634504 1.336865 -0.396511 40 40 40
-0.716807 1.510272 0.029180 32 32 32
-0.640887 1.350312 -0.345075 29 29 29
-0.731348 1.540910 0.089390 47 47 47
-0.654920 1.379879 -0.296899 30 30 30
-0.744942 1.569552 0.152000 46 46 46
-0.663199 1.397322 -0.244976 29 29 29
-0.759237 1.599670 0.217415 94 94 94
-0.669014 1.409575 -0.191579 35 35 35
-0.772461 1.627533 0.285336 79 79 79
-0.681725 1.436356 -0.139101 30 30 30
-0.785399 1.654791 0.356050 79 79 79
-0.697093 1.468736 -0.085203 47 47 47
-0.799646 1.684810 0.430556 79 79 79
-0.704803 1.484980 -0.028692 28 28 28
-0.817566 1.722566 0.510909 69 69 69
-0.636161 1.340355 -0.397546 40 40 40
-0.725381 1.528337 0.029529 31 31 31
-0.647571 1.364396 -0.348674 29 29 29
-0.735630 1.549932 0.089913 52 52 52
-0.649869 1.369238 -0.294609 29 29 29
-0.751777 1.583951 0.153394 51 51 51
-0.668281 1.408030 -0.246854 29 29 29
-0.764344 1.610431 0.218877 87 87 87
-0.670716 1.413162 -0.192066 33 33 33
-0.770767 1.623964 0.284711 79 79 79
-0.686851 1.447156 -0.140146 29 29 29
-0.793817 1.672527 0.359866 77 77 77
-0.699662 1.474149 -0.085517 52 52 52
-0.801317 1.688331 0.431456 77 77 77
-0.701373 1.477754 -0.028552 27 27 27
-0.819223 1.726057 0.511944 74 74 74
-0.624340 1.339511 -0.395993 46 46 46
-0.716383 1.536989 0.029599 31 31 31
-0.640500 1.374183 -0.350024 26 26 26
-0.734917 1.576753 0.091169 55 55 55
-0.645271 1.384418 -0.296899 27 27 27
-0.744909 1.598190 0.154266 70 70 70
-0.660104 1.416242 -0.247479 30 30 30
-0.758115 1.626523 0.220340 94 94 94
-0.662512 1.421408 -0.192554 35 35 35
-0.762749 1.636467 0.285962 79 79 79
-0.672522 1.442886 -0.139275 31 31 31
-0.783780 1.681587 0.360629 79 79 79
-0.690197 1.480808 -0.085622 50 50 50
-0.791158 1.697416 0.432356 77 77 77
-0.692729 1.486239 -0.028622 29 29 29
-0.807153 1.731734 0.511944 74 74 74
-0.625156 1.341262 -0.396511 39 39 39
-0.713004 1.529739 0.029460 31 31 31
-0.642147 1.377716 -0.350924 27 27 27
-0.735761 1.578563 0.091274 66 66 66
-0.646929 1.387977 -0.297662 26 26 26
-0.743225 1.594579 0.153917 92 92 92
-0.656765 1.409080 -0.246228 28 28 28
-0.756437 1.622924 0.219852 91 91 91
-0.666705 1.430405 -0.193772 32 32 32
-0.766922 1.645419 0.287527 83 83 83
-0.675047 1.448304 -0.139798 28 28 28
-0.782121 1.678028 0.359866 79 79 79
-0.694416 1.489859 -0.086145 50 50 50
-0.796097 1.708014 0.435055 77 77 77
-0.697798 1.497114 -0.028831 25 25 25
-0.805521 1.728232 0.510909 74 74 74
-0.616012 1.345486 -0.396511 39 39 39
-0.703407 1.536375 0.029495 29 29 29
-0.631132 1.378511 -0.350024 26 26 26
-0.729156 1.592615 0.091797 76 76 76
-0.641553 1.401273 -0.299570 29 29 29
-0.734843 1.605035 0.154440 100 100 100
-0.647159 1.413518 -0.246228 29 29 29
-0.745373 1.628036 0.219852 94 94 94
-0.661085 1.443934 -0.194991 35 35 35
-0.758993 1.657785 0.288778 83 83 83
-0.669321 1.461923 -0.140669 31 31 31
-0.772316 1.686883 0.360629 79 79 79
-0.679271 1.483656 -0.085517 49 49 49
-0.788509 1.722253 0.437305 82 82 82
-0.689256 1.505466 -0.028901 27 27 27
-0.800172 1.747727 0.515050 74 74 74
-0.624054 1.363051 -0.401687 39 39 39
-0.707570 1.545466 0.029669 31 31 31
-0.627887 1.371423 -0.348224 28 28 28
-0.719179 1.570823 0.090541 84 84 84
-0.644005 1.406629 -0.300715 27 27 27
-0.739819 1.615905 0.155486 100 100 100
-0.650448 1.420702 -0.247479 29 29 29
-0.747026 1.631646 0.220340 87 87 87
-0.656127 1.433105 -0.193529 35 35 35
-0.759816 1.659581 0.289091 79 79 79
-0.671809 1.467357 -0.141192 30 30 30
-0.772316 1.686883 0.360629 76 76 76
-0.684259 1.494552 -0.086145 47 47 47
-0.784453 1.713393 0.435055 88 88 88
-0.692586 1.512738 -0.029041 25 25 25
-0.806605 1.761779 0.519191 83 83 83
-0.612939 1.363851 -0.400652 39 39 39
-0.700862 1.559488 0.029844 30 30 30
-0.623090 1.386438 -0.350924 27 27 27
-0.707376 1.573984 0.090437 78 78 78
-0.631755 1.405718 -0.299570 29 29 29
-0.730153 1.624665 0.155834 100 100 100
-0.646992 1.439623 -0.249982 27 27 27
-0.740499 1.647685 0.221802 87 87 87
-0.649361 1.444893 -0.194503 33 33 33
-0.745782 1.659440 0.288152 75 75 75
-0.663182 1.475646 -0.141541 30 30 30
-0.766958 1.706560 0.363682 79 79 79
-0.675446 1.502936 -0.086354 50 50 50
-0.774070 1.722383 0.435955 77 77 77
-0.680369 1.513889 -0.028971 25 25 25
-0.794286 1.767367 0.519191 83 83 83
-0.611355 1.360326 -0.399617 39 39 39
-0.700042 1.557664 0.029809 28 28 28
-0.627883 1.397103 -0.353623 28 28 28
-0.709014 1.577627 0.090646 70 70 70
-0.632560 1.407509 -0.299952 29 29 29
-0.728520 1.621030 0.155486 100 100 100
-0.648612 1.443226 -0.250608 31 31 31
-0.745381 1.658549 0.223265 83 83 83
-0.650988 1.448514 -0.194991 35 35 35
-0.747401 1.663044 0.288778 75 75 75
-0.661548 1.472012 -0.141192 28 28 28
-0.768568 1.710141 0.364445 76 76 76
-0.678721 1.510223 -0.086773 49 49 49
-0.779661 1.734825 0.439104 82 82 82
-0.680369 1.513889 -0.028971 25 25 25
-0.792702 1.763843 0.518156 86 86 86
-0.604962 1.371631 -0.401687 39 39 39
-0.691571 1.568002 0.029913 30 30 30
-0.621260 1.408585 -0.355423 26 26 26
-0.707654 1.604467 0.091902 56 56 56
-0.625887 1.419076 -0.301478 30 30 30
-0.717185 1.626077 0.155486 100 100 100
-0.636926 1.444105 -0.249982 27 27 27
-0.733784 1.663712 0.223265 83 83 83
-0.645666 1.463921 -0.196453 33 33 33
-0.741353 1.680873 0.290968 87 87 87
-0.652864 1.480240 -0.141541 30 30 30
-0.758195 1.719058 0.365208 73 73 73
-0.669773 1.518579 -0.086982 49 49 49
-0.769104 1.743792 0.440004 82 82 82
-0.674625 1.529580 -0.029180 25 25 25
-0.781928 1.772869 0.519191 81 81 81
-0.608080 1.378702 -0.403758 35 35 35
-0.691571 1.568002 0.029913 30 30 30
-0.619687 1.405019 -0.354523 27 27 27
-0.710072 1.609950 0.092216 53 53 53
-0.625887 1.419076 -0.301478 29 29 29
-0.720401 1.633369 0.156183 100 100 100
-0.636926 1.444105 -0.249982 29 29 29
-0.733784 1.663712 0.223265 87 87 87
-0.650473 1.474819 -0.197916 34 34 34
-0.746136 1.691717 0.292845 87 87 87
-0.654472 1.483886 -0.141890 29 29 29
-0.758195 1.719058 0.365208 73 73 73
-0.668161 1.514924 -0.086773 49 49 49
-0.773036 1.752707 0.442254 79 79 79
-0.676239 1.533239 -0.029250 24 24 24
-0.786606 1.783474 0.522297 86 86 86
-0.599974 1.386459 -0.404793 35 35 35
-0.682196 1.576462 0.029983 30 30 30
-0.608315 1.405734 -0.353623 26 26 26
-0.696436 1.609369 0.091902 58 58 58
-0.620643 1.434221 -0.303768 30 30 30
-0.715311 1.652986 0.157578 100 100 100
-0.626829 1.448516 -0.249982 28 28 28
-0.723728 1.672438 0.223752 87 87 87
-0.633854 1.464749 -0.195966 33 33 33
-0.735092 1.698698 0.293158 83 83 83
-0.650427 1.503047 -0.143284 28 28 28
-0.747735 1.727913 0.365972 71 71 71
-0.658362 1.521385 -0.086878 52 52 52
-0.757685 1.750907 0.440454 76 76 76
-0.668695 1.545263 -0.029390 23 23 23
-0.778739 1.799560 0.525403 83 83 83
-0.601509 1.390005 -0.405828 34 34 34
-0.689344 1.592979 0.030297 31 31 31
-0.611411 1.412888 -0.355423 26 26 26
-0.696436 1.609369 0.091902 56 56 56
-0.617524 1.427014 -0.302241 28 28 28
-0.715311 1.652986 0.157578 100 100 100
-0.633105 1.463019 -0.252485 29 29 29
-0.726882 1.679725 0.224727 87 87 87
-0.635430 1.468393 -0.196453 33 33 33
-0.732739 1.693259 0.292220 79 79 79
-0.650427 1.503047 -0.143284 28 28 28
-0.752413 1.738723 0.368261 76 76 76
-0.662328 1.530550 -0.087401 43 43 43
-0.761555 1.759850 0.442704 82 82 82
-0.667107 1.541593 -0.029320 23 23 23
-0.781808 1.806652 0.527473 81 81 81
-0.589526 1.388836 -0.404275 38 38 38
-0.678987 1.599594 0.030332 29 29 29
-0.606101 1.427884 -0.358122 27 27 27
-0.690646 1.627061 0.092635 53 53 53
-0.609081 1.434905 -0.303005 30 30 30
-0.702975 1.656106 0.157403 100 100 100
-0.624419 1.471040 -0.253111 26 26 26
-0.718240 1.692068 0.225702 79 79 79
-0.628266 1.480103 -0.197428 30 30 30
-0.723215 1.703788 0.293158 83 83 83
-0.638361 1.503883 -0.142935 28 28 28
-0.746393 1.758391 0.371314 73 73 73
-0.656309 1.546167 -0.088029 45 45 45
-0.753058 1.774093 0.444953 79 79 79
-0.656328 1.546213 -0.029320 23 23 23
-0.769176 1.812066 0.527473 81 81 81
-0.591790 1.394171 -0.405828 35 35 35
-0.675862 1.592231 0.030193 29 29 29
-0.608385 1.433266 -0.359472 25 25 25
-0.692987 1.632576 0.092949 50 50 50
-0.610615 1.438519 -0.303768 29 29 29
-0.702197 1.654272 0.157229 100 100 100
-0.621332 1.463767 -0.251859 30 30 30
-0.722894 1.703032 0.227164 79 79 79
-0.630593 1.485584 -0.198160 28 28 28
-0.726303 1.711062 0.294410 83 83 83
-0.641475 1.511219 -0.143633 28 28 28
-0.743324 1.751162 0.369788 74 74 74
-0.659431 1.553521 -0.088448 45 45 45
-0.754581 1.777680 0.445853 79 79 79
-0.661016 1.557257 -0.029529 23 23 23
-0.767667 1.808510 0.526438 81 81 81
-0.583772 1.401733 -0.406864 34 34 34
-0.668084 1.604178 0.030332 30 30 30
-0.595619 1.430178 -0.357672 24 24 24
-0.684930 1.644630 0.093367 48 48 48
-0.605338 1.453517 -0.306058 28 28 28
-0.697048 1.673727 0.158623 100 100 100
-0.612873 1.471609 -0.252485 26 26 26
-0.711285 1.707913 0.227164 79 79 79
-0.625046 1.500837 -0.199622 30 30 30
-0.719955 1.728731 0.296600 87 87 87
-0.632705 1.519229 -0.143981 27 27 27
-0.731387 1.756181 0.369788 73 73 73
-0.645770 1.550599 -0.088029 43 43 43
-0.746958 1.793569 0.448552 76 76 76
-0.651939 1.565412 -0.029599 24 24 24
-0.761281 1.827960 0.530579 81 81 81
-0.588229 1.412433 -0.409969 35 35 35
-0.670390 1.609716 0.030437 31 31 31
-0.597866 1.435575 -0.359022 25 25 25
-0.680323 1.633568 0.092739 50 50 50
-0.608357 1.460766 -0.307584 27 27 27
-0.700112 1.681084 0.159321 100 100 100
-0.615152 1.477080 -0.253424 25 25 25
-0.710522 1.706080 0.226921 74 74 74
-0.620467 1.489842 -0.198160 29 29 29
-0.721474 1.732378 0.297225 79 79 79
-0.635769 1.526586 -0.144679 29 29 29
-0.734407 1.763431 0.371314 74 74 74
-0.644234 1.546911 -0.087820 43 43 43
-0.746958 1.793569 0.448552 74 74 74
-0.655014 1.572796 -0.029739 24 24 24
-0.764251 1.835093 0.532650 81 81 81
-0.579814 1.420083 -0.411005 37 37 37
-0.663671 1.625465 0.030646 27 27 27
-0.590039 1.445126 -0.360372 22 22 22
-0.673432 1.649372 0.093367 52 52 52
-0.596660 1.461342 -0.306821 26 26 26
-0.691371 1.693309 0.160018 100 100 100
-0.609305 1.492311 -0.255301 24 24 24
-0.703096 1.722026 0.228383 73 73 73
-0.613052 1.501489 -0.199135 29 29 29
-0.709362 1.737372 0.297225 87 87 87
-0.626602 1.534677 -0.145027 28 28 28
-0.725046 1.775785 0.372841 76 76 76
-0.639458 1.566164 -0.088657 43 43 43
-0.738838 1.809565 0.451252 76 76 76
-0.640994 1.569926 -0.029599 24 24 24
-0.755803 1.851115 0.535755 81 81 81
-0.576893 1.412929 -0.408934 37 37 37
-0.665183 1.629168 0.030716 28 28 28
-0.591513 1.448735 -0.361271 24 24 24
-0.675697 1.654919 0.093681 49 49 49
-0.596660 1.461342 -0.306821 25 25 25
-0.689865 1.689620 0.159669 100 100 100
-0.610798 1.495969 -0.255927 24 24 24
-0.704597 1.725701 0.228871 74 74 74
-0.616053 1.508840 -0.200109 29 29 29
-0.707122 1.731886 0.296287 75 75 75
-0.622084 1.523609 -0.143981 28 28 28
-0.729499 1.786691 0.375130 74 74 74
-0.640968 1.569862 -0.088866 45 45 45
-0.740312 1.813173 0.452152 76 76 76
-0.640994 1.569926 -0.029599 24 24 24
-0.751422 1.840384 0.532650 81 81 81
-0.565580 1.413334 -0.407899 34 34 34
-0.651564 1.628202 0.030612 30 30 30
-0.585728 1.463684 -0.363971 24 24 24
-0.670805 1.676285 0.094623 67 67 67
-0.590820 1.476409 -0.309111 26 26 26
-0.679533 1.698095 0.160018 100 100 100
-0.597404 1.492861 -0.254675 24 24 24
-0.696957 1.741636 0.230333 74 74 74
-0.608455 1.520476 -0.201084 29 29 29
-0.700152 1.749618 0.298477 87 87 87
-0.614393 1.535314 -0.144679 28 28 28
-0.717008 1.791740 0.375130 73 73 73
-0.632961 1.581716 -0.089285 43 43 43
-0.733427 1.832772 0.455751 77 77 77
-0.635219 1.587358 -0.029844 22 22 22
-0.742862 1.856347 0.535755 76 76 76
-0.571322 1.427683 -0.412040 35 35 35
-0.658994 1.646768 0.030961 38 38 38
-0.584280 1.460066 -0.363071 22 22 22
-0.676000 1.689265 0.095356 97 97 97
-0.595197 1.487345 -0.311400 26 26 26
-0.681014 1.701794 0.160367 100 100 100
-0.600340 1.500197 -0.255927 24 24 24
-0.694007 1.734264 0.229358 74 74 74
-0.609930 1.524162 -0.201572 28 28 28
-0.703821 1.758788 0.300041 83 83 83
-0.617354 1.542713 -0.145376 24 24 24
-0.718467 1.795386 0.375894 77 77 77
-0.630735 1.576153 -0.088971 45 45 45
-0.734875 1.836390 0.456651 74 74 74
-0.640420 1.600354 -0.030088 24 24 24
-0.747168 1.867108 0.538861 81 81 81
-0.565572 1.442428 -0.415146 35 35 35
-0.648941 1.655052 0.031030 43 43 43
-0.574784 1.465923 -0.363521 25 25 25
-0.660545 1.684646 0.094833 100 100 100
-0.583365 1.487808 -0.310637 26 26 26
-0.675662 1.723201 0.161935 100 100 100
-0.591294 1.508029 -0.256553 24 24 24
-0.684782 1.746459 0.230333 74 74 74
-0.597825 1.524687 -0.201084 28 28 28
-0.695131 1.772854 0.301606 91 91 91
-0.610932 1.558115 -0.146422 24 24 24
-0.705915 1.800358 0.375894 76 76 76
-0.621174 1.584236 -0.089180 45 45 45
-0.722037 1.841476 0.456651 77 77 77
-0.629232 1.604786 -0.030088 24 24 24
-0.738346 1.883070 0.541967 81 81 81
-0.566982 1.446025 -0.416181 37 37 37
-0.652591 1.664360 0.031205 50 50 50
-0.576207 1.469552 -0.364421 21 21 21
-0.661274 1.686505 0.094937 100 100 100
-0.581932 1.484153 -0.309874 25 25 25
-0.680026 1.734330 0.162981 100 100 100
-0.595620 1.519064 -0.258430 23 23 23
-0.689129 1.757548 0.231795 74 74 74
-0.597825 1.524687 -0.201084 28 28 28
-0.695131 1.772854 0.301606 91 91 91
-0.612387 1.561825 -0.146770 24 24 24
-0.713082 1.818635 0.379710 74 74 74
-0.625549 1.595393 -0.089809 43 43 43
-0.723460 1.845104 0.457550 74 74 74
-0.630692 1.608509 -0.030158 24 24 24
-0.741167 1.890264 0.544038 79 79 79
-0.554103 1.442734 -0.414110 37 37 37
-0.640239 1.667009 0.031170 46 46 46
-0.568030 1.478996 -0.365770 19 19 19
-0.655928 1.707861 0.095879 100 100 100
-0.572964 1.491845 -0.310637 24 24 24
-0.663615 1.727876 0.161935 100 100 100
-0.585001 1.523185 -0.258430 23 23 23
-0.678266 1.766023 0.232283 73 73 73
-0.592860 1.543648 -0.203034 29 29 29
-0.681321 1.773976 0.300980 87 87 87
-0.600040 1.562342 -0.146422 24 24 24
-0.701776 1.827235 0.380473 76 76 76
-0.617260 1.607179 -0.090227 42 42 42
-0.714753 1.861025 0.460250 76 76 76
-0.616579 1.605406 -0.030018 25 25 25
-0.729338 1.898999 0.545073 79 79 79
-0.556873 1.449948 -0.416181 35 35 35
-0.637371 1.659542 0.031030 40 40 40
-0.570126 1.484454 -0.367120 25 25 25
-0.654496 1.704132 0.095670 100 100 100
-0.575780 1.499176 -0.312164 24 24 24
-0.667187 1.737176 0.162807 100 100 100
-0.585001 1.523185 -0.258430 23 23 23
-0.681113 1.773435 0.233258 71 71 71
-0.594284 1.547354 -0.203522 28 28 28
-0.686278 1.786884 0.303170 83 83 83
-0.601468 1.566062 -0.146770 24 24 24
-0.700368 1.823569 0.379710 73 73 73
-0.618692 1.610908 -0.090437 40 40 40
-0.720343 1.875578 0.463849 73 73 73
-0.620881 1.616607 -0.030228 25 25 25
-0.729338 1.898999 0.545073 76 76 76
-0.549457 1.461033 -0.418252 35 35 35
-0.628585 1.671438 0.031170 37 37 37
-0.557005 1.481102 -0.365321 21 21 21
-0.646802 1.719876 0.096298 100 100 100
-0.568064 1.510509 -0.313690 24 24 24
-0.656446 1.745521 0.163156 100 100 100
-0.572962 1.523534 -0.257804 24 24 24
-0.668716 1.778147 0.233258 71 71 71
-0.584864 1.555182 -0.204009 27 27 27
-0.680045 1.808272 0.305986 87 87 87
-0.591923 1.573953 -0.147119 24 24 24
-0.689002 1.832090 0.380473 71 71 71
-0.605322 1.609580 -0.090123 42 42 42
-0.711347 1.891506 0.466548 73 73 73
-0.615211 1.635876 -0.030507 24 24 24
-0.722863 1.922127 0.550249 76 76 76
-0.549457 1.461033 -0.418252 35 35 35
-0.634920 1.688283 0.031484 34 34 34
-0.560434 1.490222 -0.367570 22 22 22
-0.645396 1.716137 0.096089 100 100 100
-0.569446 1.514184 -0.314453 25 25 25
-0.662758 1.762305 0.164724 99 99 99
-0.575744 1.530930 -0.259055 23 23 23
-0.670113 1.781863 0.233745 74 74 74
-0.583467 1.551466 -0.203522 28 28 28
-0.676568 1.799027 0.304421 83 83 83
-0.594729 1.581412 -0.147816 23 23 23
-0.691766 1.839440 0.382000 73 73 73
-0.607431 1.615188 -0.090437 40 40 40
-0.708603 1.884210 0.464749 73 73 73
-0.616619 1.639619 -0.030577 27 27 27
-0.722863 1.922127 0.550249 74 74 74
-0.543916 1.477524 -0.421875 38 38 38
-0.621737 1.688922 0.031414 31 31 31
-0.551364 1.497756 -0.368470 24 24 24
-0.633399 1.720601 0.096089 100 100 100
-0.558183 1.516281 -0.314072 24 24 24
-0.648374 1.761279 0.164201 100 100 100
-0.573231 1.557157 -0.262810 22 22 22
-0.659029 1.790223 0.234233 76 76 76
-0.572621 1.555501 -0.203522 27 27 27
-0.665357 1.807414 0.305047 73 73 73
-0.586427 1.593004 -0.148513 23 23 23
-0.681621 1.851594 0.383526 74 74 74
-0.602350 1.636258 -0.091379 37 37 37
-0.698125 1.896426 0.466548 73 73 73
-0.603776 1.640131 -0.030507 25 25 25
-0.714765 1.941630 0.554390 70 70 70
-0.541914 1.472085 -0.420322 35 35 35
-0.627263 1.703934 0.031694 36 36 36
-0.556749 1.512386 -0.372069 22 22 22
-0.637539 1.731847 0.096717 100 100 100
-0.560218 1.521808 -0.315216 24 24 24
-0.644932 1.751931 0.163330 87 87 87
-0.571866 1.553449 -0.262184 22 22 22
-0.664515 1.805126 0.236183 76 76 76
-0.576736 1.566678 -0.204984 28 28 28
-0.665357 1.807414 0.305047 75 75 75
-0.587804 1.596744 -0.148862 22 22 22
-0.684334 1.858964 0.385053 73 73 73
-0.603730 1.640007 -0.091588 37 37 37
-0.699471 1.900083 0.467448 70 70 70
-0.606539 1.647637 -0.030646 25 25 25
-0.714765 1.941630 0.554390 74 74 74
-0.530828 1.472012 -0.419287 35 35 35
-0.615949 1.708057 0.031694 32 32 32
-0.548029 1.519711 -0.372969 22 22 22
-0.630104 1.747310 0.097345 100 100 100
-0.552777 1.532877 -0.316743 24 24 24
-0.639382 1.773038 0.164899 96 96 96
-0.560210 1.553491 -0.261558 22 22 22
-0.653875 1.813229 0.236670 76 76 76
-0.569026 1.577938 -0.205959 27 27 27
-0.660056 1.830370 0.308176 83 83 83
-0.575849 1.596859 -0.148513 23 23 23
-0.670658 1.859768 0.384289 73 73 73
-0.594872 1.649611 -0.091902 34 34 34
-0.692804 1.921179 0.471497 68 68 68
-0.596955 1.655386 -0.030716 24 24 24
-0.701872 1.946327 0.554390 72 72 72
-0.540658 1.499272 -0.427051 39 39 39
-0.614592 1.704295 0.031624 32 32 32
-0.546707 1.516045 -0.372069 24 24 24
-0.631459 1.751068 0.097554 100 100 100
-0.554774 1.538418 -0.317888 24 24 24
-0.642085 1.780535 0.165596 96 96 96
-0.562891 1.560924 -0.262810 23 23 23
-0.652528 1.809494 0.236183 73 73 73
-0.570373 1.581673 -0.206447 25 25 25
-0.664077 1.841519 0.310053 75 75 75
-0.577201 1.600607 -0.148862 22 22 22
-0.670658 1.859768 0.384289 76 76 76
-0.592162 1.642096 -0.091483 36 36 36
-0.696770 1.932178 0.474197 66 66 66
-0.602382 1.670435 -0.030995 25 25 25
-0.707115 1.960866 0.558531 72 72 72
-0.533127 1.512212 -0.429640 45 45 45
-0.609030 1.727508 0.031973 31 31 31
-0.542971 1.540135 -0.377018 30 30 30
-0.617585 1.751774 0.097345 100 100 100
-0.546363 1.549754 -0.319414 22 22 22
-0.633302 1.796358 0.166642 96 96 96
-0.554334 1.572364 -0.264061 23 23 23
-0.642203 1.821606 0.237158 74 74 74
-0.557720 1.581970 -0.205959 27 27 27
-0.652196 1.849950 0.310679 75 75 75
-0.572357 1.623487 -0.150605 21 21 21
-0.662555 1.879332 0.387342 74 74 74
-0.581725 1.650058 -0.091693 36 36 36
-0.681630 1.933439 0.473297 66 66 66
-0.590413 1.674702 -0.030995 24 24 24
-0.695635 1.973163 0.560602 69 69 69
-0.534412 1.515856 -0.430675 52 52 52
-0.613684 1.740710 0.032217 31 31 31
-0.546859 1.551162 -0.379717 37 37 37
-0.617585 1.751774 0.097345 100 100 100
-0.542446 1.538645 -0.317125 24 24 24
-0.637277 1.807632 0.167688 96 96 96
-0.558275 1.583542 -0.265939 24 24 24
-0.643523 1.825350 0.237645 74 74 74
-0.559040 1.585714 -0.206447 25 25 25
-0.650883 1.846224 0.310053 73 73 73
-0.573682 1.627245 -0.150954 22 22 22
-0.667777 1.894144 0.390395 74 74 74
-0.585709 1.661360 -0.092321 34 34 34
-0.682278 1.935277 0.473747 71 71 71
-0.589083 1.670930 -0.030926 24 24 24
-0.698204 1.980451 0.562673 72 72 72
-0.521196 1.510236 -0.428087 44 44 44
-0.605387 1.754193 0.032392 32 32 32
-0.537831 1.558439 -0.380617 42 42 42
-0.611165 1.770936 0.098182 100 100 100
-0.539275 1.562623 -0.321322 24 24 24
-0.622675 1.804286 0.166990 92 92 92
-0.546471 1.583475 -0.265313 24 24 24
-0.636584 1.844590 0.239595 76 76 76
-0.553692 1.604399 -0.208397 24 24 24
-0.641201 1.857969 0.311305 73 73 73
-0.562877 1.631014 -0.150954 22 22 22
-0.661604 1.917090 0.394211 73 73 73
-0.574678 1.665208 -0.092321 36 36 36
-0.671971 1.947128 0.475547 63 63 63
-0.581902 1.686142 -0.031135 24 24 24
-0.683794 1.981386 0.561637 67 67 67
-0.522456 1.513888 -0.429122 44 44 44
-0.600168 1.739071 0.032112 30 30 30
-0.539102 1.562123 -0.381517 32 32 32
-0.613772 1.778488 0.098601 100 100 100
-0.539915 1.564479 -0.321704 29 29 29
-0.625275 1.811819 0.167688 89 89 89
-0.547760 1.587210 -0.265939 24 24 24
-0.639822 1.853972 0.240814 79 79 79
-0.556282 1.611905 -0.209372 23 23 23
-0.646357 1.872908 0.313808 72 72 72
-0.564177 1.634781 -0.151302 21 21 21
-0.661604 1.917090 0.394211 67 67 67
-0.577936 1.674648 -0.092844 31 31 31
-0.676421 1.960023 0.478696 68 68 68
-0.583207 1.689923 -0.031205 25 25 25
-0.686314 1.988691 0.563708 69 69 69
-0.514344 1.524821 -0.431193 39 39 39
-0.592487 1.756482 0.032357 41 41 41
-0.521955 1.547384 -0.377018 27 27 27
-0.602617 1.786514 0.098810 100 100 100
-0.531490 1.575651 -0.323230 35 35 35
-0.615158 1.823692 0.168385 92 92 92
-0.542980 1.609713 -0.269067 29 29 29
-0.623691 1.848989 0.239595 73 73 73
-0.546919 1.621392 -0.210103 23 23 23
-0.638317 1.892349 0.316310 70 70 70
-0.554024 1.642455 -0.151651 23 23 23
-0.646950 1.917941 0.393448 68 68 68
-0.566869 1.680535 -0.092949 33 33 33
-0.667704 1.979469 0.482295 66 66 66
-0.576508 1.709112 -0.031484 23 23 23
-0.676119 2.004416 0.566814 67 67 67
-0.519284 1.539465 -0.435334 35 35 35
-0.599517 1.777325 0.032741 63 63 63
-0.523824 1.552923 -0.378368 29 29 29
-0.602617 1.786514 0.098810 100 100 100
-0.533373 1.581232 -0.324375 30 30 30
-0.618979 1.835019 0.169431 92 92 92
-0.547399 1.622815 -0.271257 35 35 35
-0.624960 1.852751 0.240083 72 72 72
-0.548188 1.625154 -0.210590 20 20 20
-0.639580 1.896092 0.316936 72 72 72
-0.557845 1.653783 -0.152697 22 22 22
-0.650715 1.929103 0.395738 68 68 68
-0.566869 1.680535 -0.092949 36 36 36
-0.666458 1.975776 0.481395 66 66 66
-0.580343 1.720481 -0.031694 24 24 24
-0.678589 2.011739 0.568884 74 74 74
-0.508524 1.543053 -0.435334 36 36 36
-0.590850 1.792862 0.032950 80 80 80
-0.517239 1.569498 -0.381517 27 27 27
-0.592631 1.798265 0.099229 100 100 100
-0.522321 1.584917 -0.324375 30 30 30
-0.608647 1.846865 0.170128 85 85 85
-0.536675 1.628473 -0.271570 35 35 35
-0.615738 1.868381 0.241545 73 73 73
-0.541178 1.642139 -0.212296 9 9 9
-0.626327 1.900511 0.316936 72 72 72
-0.546286 1.657637 -0.152697 23 23 23
-0.642762 1.950380 0.399172 62 62 62
-0.557623 1.692039 -0.093367 31 31 31
-0.651429 1.976679 0.480495 68 68 68
-0.568944 1.726389 -0.031728 32 32 32
-0.669365 2.031105 0.573025 70 70 70
-0.506105 1.535714 -0.433263 40 40 40
-0.590224 1.790963 0.032915 89 89 89
-0.519069 1.575051 -0.382867 30 30 30
-0.596382 1.809647 0.099857 100 100 100
-0.526008 1.596105 -0.326665 28 28 28
-0.607400 1.843080 0.169779 89 89 89
-0.538530 1.634102 -0.272509 31 31 31
-0.620709 1.883464 0.243495 74 74 74
-0.538693 1.634597 -0.211321 15 15 15
-0.625090 1.896759 0.316310 75 75 75
-0.552522 1.676559 -0.154440 24 24 24
-0.645834 1.959703 0.401081 64 64 64
-0.561999 1.705317 -0.094100 28 28 28
-0.656308 1.991486 0.484095 68 68 68
-0.570196 1.730188 -0.031798 38 38 38
-0.668156 2.027436 0.571990 74 74 74
-0.497147 1.544726 -0.434816 43 43 43
-0.576482 1.791233 0.032845 89 89 89
-0.513434 1.595331 -0.386916 32 32 32
-0.586181 1.821371 0.100276 97 97 97
-0.514852 1.599738 -0.326665 28 28 28
-0.594518 1.847276 0.169779 92 92 92
-0.524688 1.630300 -0.271257 26 26 26
-0.609369 1.893420 0.244226 79 79 79
-0.532742 1.655325 -0.213515 29 29 29
-0.617885 1.919880 0.319439 70 70 70
-0.542025 1.684169 -0.154789 25 25 25
-0.630333 1.958558 0.399936 62 62 62
-0.552528 1.716804 -0.094519 27 27 27
-0.644777 2.003439 0.485894 64 64 64
-0.559328 1.737933 -0.031868 41 41 41
-0.656353 2.039407 0.574061 70 70 70
-0.506025 1.572311 -0.442581 96 96 96
-0.577094 1.793136 0.032880 86 86 86
-0.512240 1.591621 -0.386016 34 34 34
-0.588629 1.828976 0.100694 100 100 100
-0.517258 1.607213 -0.328191 27 27 27
-0.598181 1.858655 0.170825 85 85 85
-0.527714 1.639702 -0.272822 29 29 29
-0.607545 1.887751 0.243495 73 73 73
-0.534566 1.660994 -0.214246 29 29 29
-0.620306 1.927402 0.320691 67 67 67
-0.544466 1.691755 -0.155486 34 34 34
-0.632739 1.966033 0.401462 58 58 58
-0.556199 1.728211 -0.095147 34 34 34
-0.648359 2.014570 0.488594 68 68 68
-0.563004 1.749355 -0.032078 35 35 35
-0.658720 2.046762 0.576131 74 74 74
-0.494457 1.573962 -0.442063 100 100 100
-0.568158 1.808568 0.033090 86 86 86
-0.504620 1.606313 -0.388715 75 75 75
-0.575846 1.833041 0.100694 97 97 97
-0.508378 1.618277 -0.329718 31 31 31
-0.590564 1.879893 0.172394 82 82 82
-0.516846 1.645231 -0.273135 30 30 30
-0.595541 1.895734 0.243982 76 76 76
-0.521768 1.660898 -0.213759 29 29 29
-0.609203 1.939224 0.321942 70 70 70
-0.533837 1.699317 -0.155834 23 23 23
-0.621351 1.977895 0.402989 62 62 62
-0.545916 1.737768 -0.095461 38 38 38
-0.635447 2.022765 0.489493 68 68 68
-0.554373 1.764689 -0.032287 31 31 31
-0.649047 2.066056 0.580272 76 76 76
-0.495615 1.577648 -0.443098 100 100 100
-0.572353 1.821922 0.033334 89 89 89
-0.508124 1.617468 -0.391415 90 90 90
-0.577043 1.836852 0.100904 97 97 97
-0.508967 1.620150 -0.330100 42 42 42
-0.591759 1.883695 0.172743 79 79 79
-0.520398 1.656538 -0.275012 30 30 30
-0.599110 1.907097 0.245445 74 74 74
-0.522957 1.664686 -0.214246 28 28 28
-0.608019 1.935455 0.321316 67 67 67
-0.537420 1.710722 -0.156880 25 25 25
-0.626059 1.992879 0.406042 60 60 60
-0.549508 1.749201 -0.096089 36 36 36
-0.637784 2.030202 0.491293 68 68 68
-0.551976 1.757058 -0.032147 26 26 26
-0.651363 2.073428 0.582343 74 74 74
-0.482050 1.573766 -0.441028 100 100 100
-0.558715 1.824059 0.033299 86 86 86
-0.498249 1.626653 -0.392765 91 91 91
-0.566224 1.848572 0.101322 97 97 97
-0.500810 1.635014 -0.332389 89 89 89
-0.577681 1.885976 0.172568 85 85 85
-0.510845 1.667775 -0.276263 31 31 31
-0.591262 1.930316 0.247882 71 71 71
-0.513939 1.677875 -0.215465 33 33 33
-0.595311 1.943533 0.321942 69 69 69
-0.522830 1.706903 -0.156183 25 25 25
-0.611782 1.997307 0.406042 62 62 62
-0.536977 1.753088 -0.096089 30 30 30
-0.626664 2.045893 0.493993 68 68 68
-0.541731 1.768611 -0.032287 26 26 26
-0.635378 2.074342 0.581308 70 70 70
-0.483181 1.577460 -0.442063 100 100 100
-0.559887 1.827883 0.033369 83 83 83
-0.500532 1.634106 -0.394564 91 91 91
-0.570903 1.863850 0.102160 93 93 93
-0.502535 1.640645 -0.333534 93 93 93
-0.579431 1.891691 0.173091 79 79 79
-0.514316 1.679107 -0.278140 53 53 53
-0.593588 1.937908 0.248857 72 72 72
-0.518590 1.693060 -0.217415 33 33 33
-0.597625 1.951089 0.323194 69 69 69
-0.523997 1.710714 -0.156532 26 26 26
-0.613507 2.002939 0.407186 68 68 68
-0.539901 1.762637 -0.096612 31 31 31
-0.630088 2.057073 0.496692 64 64 64
-0.542903 1.772435 -0.032357 25 25 25
-0.637641 2.081730 0.583378 76 76 76
-0.476030 1.591735 -0.445169 100 100 100
-0.547752 1.831556 0.033369 79 79 79
-0.487450 1.629922 -0.392765 91 91 91
-0.559674 1.871422 0.102369 90 90 90
-0.495581 1.657109 -0.336205 90 90 90
-0.569156 1.903128 0.173789 79 79 79
-0.505999 1.691944 -0.279705 86 86 86
-0.579584 1.937999 0.248370 73 73 73
-0.509625 1.704069 -0.218390 39 39 39
-0.589200 1.970150 0.325697 70 70 70
-0.517207 1.729422 -0.157926 27 27 27
-0.601897 2.012607 0.408331 60 60 60
-0.527055 1.762352 -0.096403 32 32 32
-0.618665 2.068675 0.498492 68 68 68
-0.536292 1.793239 -0.032671 22 22 22
-0.628249 2.100720 0.587519 72 72 72
-0.478244 1.599138 -0.447239 100 100 100
-0.550043 1.839220 0.033509 86 86 86
-0.488008 1.631789 -0.393214 93 93 93
-0.560246 1.873336 0.102474 77 77 77
-0.495581 1.657109 -0.336205 86 86 86
-0.571439 1.910763 0.174486 75 75 75
-0.505999 1.691944 -0.279705 85 85 85
-0.582997 1.949410 0.249832 73 73 73
-0.511331 1.709775 -0.219121 84 84 84
-0.591464 1.977720 0.326948 72 72 72
-0.521203 1.742784 -0.159146 30 30 30
-0.604147 2.020130 0.409858 58 58 58
-0.528199 1.766179 -0.096612 31 31 31
-0.618665 2.068675 0.498492 64 64 64
-0.536292 1.793239 -0.032671 22 22 22
-0.631570 2.111825 0.590625 74 74 74
-0.471393 1.617276 -0.451380 100 100 100
-0.541666 1.858373 0.033788 81 81 81
-0.480422 1.648252 -0.396364 91 91 91
-0.548272 1.881036 0.102683 79 79 79
-0.482901 1.656759 -0.335442 86 86 86
-0.561431 1.926183 0.175532 79 79 79
-0.497491 1.706814 -0.281582 82 82 82
-0.571596 1.961055 0.250807 68 68 68
-0.499938 1.715209 -0.219365 100 100 100
-0.577642 1.981801 0.326948 72 72 72
-0.511811 1.755944 -0.160018 50 50 50
-0.595523 2.043147 0.413674 62 62 62
-0.520886 1.787080 -0.097554 35 35 35
-0.605299 2.076685 0.499391 68 68 68
-0.523760 1.796940 -0.032671 22 22 22
-0.620055 2.127311 0.593731 74 74 74
-0.468149 1.606148 -0.448275 100 100 100
-0.542786 1.862213 0.033858 79 79 79
-0.482603 1.655736 -0.398163 84 84 84
-0.550508 1.888706 0.103102 77 77 77
-0.486197 1.668068 -0.337732 93 93 93
-0.560316 1.922357 0.175183 75 75 75
-0.497491 1.706814 -0.281582 85 85 85
-0.574928 1.972490 0.252270 71 71 71
-0.502160 1.722832 -0.220340 88 88 88
-0.579853 1.989387 0.328200 73 73 73
-0.509023 1.746380 -0.159146 76 76 76
-0.596622 2.046917 0.414437 62 62 62
-0.525916 1.804338 -0.098496 40 40 40
-0.609661 2.091652 0.502991 64 64 64
-0.525998 1.804619 -0.032811 20 20 20
-0.621136 2.131020 0.594766 72 72 72
-0.457980 1.613094 -0.449310 100 100 100
-0.528679 1.862110 0.033788 83 83 83
-0.473161 1.666563 -0.399963 84 84 84
-0.541673 1.907874 0.103939 77 77 77
-0.475613 1.675198 -0.338495 90 90 90
-0.549059 1.933889 0.175880 72 72 72
-0.484484 1.706445 -0.280956 85 85 85
-0.563313 1.984094 0.253244 69 69 69
-0.492289 1.733934 -0.221315 91 91 91
-0.567030 1.997187 0.328825 69 69 69
-0.501717 1.767141 -0.160715 84 84 84
-0.584998 2.060475 0.416345 66 66 66
-0.515489 1.815651 -0.098915 64 64 64
-0.598770 2.108980 0.506140 62 62 62
-0.516664 1.819789 -0.033020 21 21 21
-0.607299 2.139021 0.595801 74 74 74
-0.461146 1.624244 -0.452416 100 100 100
-0.530864 1.869804 0.033927 79 79 79
-0.471032 1.659064 -0.398163 88 88 88
-0.541673 1.907874 0.103939 77 77 77
-0.477758 1.682753 -0.340022 88 88 88
-0.552323 1.945388 0.176926 82 82 82
-0.485563 1.710246 -0.281582 82 82 82
-0.564397 1.987914 0.253732 69 69 69
-0.496626 1.749211 -0.223265 93 93 93
-0.570267 2.008588 0.330702 70 70 70
-0.501717 1.767141 -0.160715 84 84 84
-0.584462 2.058587 0.415964 62 62 62
-0.514398 1.811808 -0.098706 100 100 100
-0.603027 2.123977 0.509739 61 61 61
-0.522672 1.840949 -0.033404 72 72 72
-0.612575 2.157606 0.600978 70 70 70
-0.452139 1.634793 -0.454486 100 100 100
-0.520257 1.881084 0.034067 77 77 77
-0.460767 1.665989 -0.399063 84 84 84
-0.529738 1.915367 0.104149 77 77 77
-0.467339 1.689750 -0.340785 86 86 86
-0.541193 1.956784 0.177623 75 75 75
-0.477070 1.724934 -0.283459 80 80 80
-0.552969 1.999362 0.254707 67 67 67
-0.480475 1.737245 -0.221315 91 91 91
-0.559741 2.023847 0.332580 72 72 72
-0.492863 1.782037 -0.161761 82 82 82
-0.575146 2.079547 0.419398 66 66 66
-0.502586 1.817192 -0.098810 100 100 100
-0.586478 2.120520 0.507939 62 62 62
-0.512261 1.852174 -0.033544 86 86 86
-0.600964 2.172897 0.604084 70 70 70
-0.454199 1.642241 -0.456557 100 100 100
-0.524521 1.896503 0.034346 77 77 77
-0.461806 1.669745 -0.399963 80 80 80
-0.529738 1.915367 0.104149 77 77 77
-0.467339 1.689750 -0.340785 95 95 95
-0.544380 1.968306 0.178669 82 82 82
-0.479176 1.732550 -0.284711 82 82 82
-0.552440 1.997449 0.254463 67 67 67
-0.482591 1.744898 -0.222290 91 91 91
-0.560794 2.027655 0.333205 70 70 70
-0.496050 1.793559 -0.162807 79 79 79
-0.577240 2.087116 0.420925 64 64 64
-0.505780 1.828742 -0.099438 100 100 100
-0.588556 2.128033 0.509739 62 62 62
-0.511195 1.848319 -0.033474 80 80 80
-0.606114 2.191516 0.609260 69 69 69
-0.441719 1.641641 -0.455522 100 100 100
-0.512308 1.903980 0.034416 74 74 74
-0.453176 1.684219 -0.402662 80 80 80
-0.520506 1.934448 0.104986 79 79 79
-0.456551 1.696763 -0.341548 90 90 90
-0.528555 1.964362 0.177972 72 72 72
-0.468096 1.739668 -0.285336 80 80 80
-0.543640 2.020426 0.256901 69 69 69
-0.472461 1.755892 -0.223265 91 91 91
-0.547652 2.035335 0.333831 69 69 69
-0.482481 1.793130 -0.162458 77 77 77
-0.565716 2.102470 0.423214 66 66 66
-0.495077 1.839943 -0.099857 94 94 94
-0.578243 2.149026 0.513788 57 57 57
-0.499318 1.855705 -0.033544 77 77 77
-0.588792 2.188232 0.607189 67 67 67
-0.442723 1.645372 -0.456557 100 100 100
-0.511268 1.900118 0.034346 77 77 77
-0.455201 1.691746 -0.404462 84 84 84
-0.522581 1.942162 0.105405 82 82 82
-0.459612 1.708138 -0.343838 88 88 88
-0.529590 1.968210 0.178321 75 75 75
-0.468096 1.739668 -0.285336 80 80 80
-0.544671 2.024260 0.257388 69 69 69
-0.477619 1.775061 -0.225702 88 88 88
-0.550731 2.046781 0.335708 69 69 69
-0.484552 1.800826 -0.163156 79 79 79
-0.566736 2.106262 0.423978 64 64 64
-0.497153 1.847658 -0.100276 92 92 92
-0.581787 2.162199 0.516938 59 59 59
-0.502435 1.867291 -0.033753 80 80 80
-0.591804 2.199425 0.610295 66 66 66
-0.434159 1.659636 -0.459663 100 100 100
-0.500015 1.911380 0.034486 77 77 77
-0.443380 1.694883 -0.404462 84 84 84
-0.513054 1.961221 0.106242 79 79 79
-0.449663 1.718903 -0.345364 93 93 93
-0.521887 1.994990 0.180412 79 79 79
-0.456939 1.746716 -0.285962 77 77 77
-0.530526 2.028013 0.257388 67 67 67
-0.468230 1.789875 -0.227164 91 91 91
-0.541428 2.069686 0.338837 67 67 67
-0.473985 1.811875 -0.163853 79 79 79
-0.552018 2.110167 0.423978 68 68 68
-0.482220 1.843355 -0.099857 94 94 94
-0.568157 2.171864 0.518287 57 57 57
-0.492424 1.882361 -0.033962 77 77 77
-0.578390 2.210979 0.612366 66 66 66
-0.437093 1.670850 -0.462768 100 100 100
-0.504064 1.926856 0.034765 79 79 79
-0.443380 1.694883 -0.404462 84 84 84
-0.511032 1.953492 0.105823 77 77 77
-0.450657 1.722701 -0.346128 88 88 88
-0.524913 2.006555 0.181458 75 75 75
-0.459939 1.758182 -0.287839 80 80 80
-0.531531 2.031854 0.257876 65 65 65
-0.465215 1.778352 -0.225702 91 91 91
-0.544428 2.081153 0.340714 64 64 64
-0.477010 1.823440 -0.164899 72 72 72
-0.554502 2.119663 0.425886 62 62 62
-0.485253 1.854948 -0.100485 94 94 94
-0.569637 2.177519 0.519637 62 62 62
-0.494448 1.890099 -0.034102 82 82 82
-0.582301 2.225931 0.616507 65 65 65
-0.426955 1.677456 -0.463804 96 96 96
-0.494233 1.941784 0.034975 81 81 81
-0.435013 1.709118 -0.407161 80 80 80
-0.501020 1.968452 0.106451 79 79 79
-0.438253 1.721847 -0.345364 86 86 86
-0.512576 2.013854 0.181807 82 82 82
-0.451192 1.772680 -0.289717 82 82 82
-0.521961 2.050725 0.259825 65 65 65
-0.457328 1.796789 -0.227652 88 88 88
-0.531587 2.088546 0.341340 66 66 66
-0.467855 1.838149 -0.165945 77 77 77
-0.545759 2.144223 0.430083 64 64 64
-0.474910 1.865868 -0.100904 94 94 94
-0.557105 2.188804 0.521437 61 61 61
-0.481902 1.893337 -0.034102 80 80 80
-0.569432 2.237233 0.618578 63 63 63
-0.426002 1.673712 -0.462768 93 93 93
-0.495219 1.945660 0.035044 81 81 81
-0.438859 1.724226 -0.410761 80 80 80
-0.504962 1.983936 0.107289 79 79 79
-0.440190 1.729458 -0.346891 86 86 86
-0.512576 2.013854 0.181807 75 75 75
-0.452166 1.776509 -0.290342 80 80 80
-0.523919 2.058420 0.260800 65 65 65
-0.458307 1.800636 -0.228139 91 91 91
-0.533536 2.096204 0.342591 69 69 69
-0.465889 1.830425 -0.165247 75 75 75
-0.547211 2.149931 0.431228 60 60 60
-0.477866 1.877481 -0.101532 92 92 92
-0.559028 2.196358 0.523236 61 61 61
-0.482888 1.897213 -0.034172 80 80 80
-0.569432 2.237233 0.618578 66 66 66
-0.416160 1.684147 -0.464839 96 96 96
-0.481624 1.949070 0.035044 81 81 81
-0.429616 1.738599 -0.413460 88 88 88
-0.493015 1.995169 0.107707 77 77 77
-0.430932 1.743924 -0.349180 88 88 88
-0.500416 2.025120 0.182504 79 79 79
-0.439753 1.779622 -0.290342 80 80 80
-0.514775 2.083226 0.263482 73 73 73
-0.449535 1.819209 -0.230089 86 86 86
-0.522206 2.113301 0.344782 64 64 64
-0.455011 1.841370 -0.165945 72 72 72
-0.532189 2.153699 0.431228 62 62 62
-0.468580 1.896283 -0.102369 77 77 77
-0.546486 2.211558 0.525936 61 61 61
-0.474429 1.919950 -0.034521 85 85 85
