1.827121 1.445564 0.624272 81 81 81
1.186534 0.925688 -0.403240 0 0 0
1.374831 1.072591 0.030437 5 5 5
1.278672 0.997572 0.084994 6 6 6
1.258275 0.981658 0.139623 57 57 57
1.745117 1.361474 0.271769 58 58 58
1.769282 1.380327 0.355419 79 79 79
1.261417 0.984109 -0.139972 1 1 1
1.794027 1.399631 0.442295 75 75 75
1.325914 1.034428 -0.088134 1 1 1
1.802274 1.406066 0.527735 75 75 75
1.370101 1.068900 -0.030332 1 1 1
1.833872 1.430717 0.623236 83 83 83
1.381137 1.077511 0.030577 5 5 5
1.273948 0.993886 0.084680 6 6 6
1.255133 0.979207 0.139275 61 61 61
1.525999 1.190526 0.237645 50 50 50
1.766167 1.377897 0.354793 82 82 82
1.264559 0.986561 -0.140321 1 1 1
1.790931 1.397216 0.441532 75 75 75
1.316466 1.027056 -0.087506 1 1 1
1.799201 1.403668 0.526835 78 78 78
1.373254 1.071360 -0.030402 1 1 1
1.824734 1.423588 0.620130 81 81 81
1.380885 1.061506 0.030402 4 4 4
1.292112 0.993265 0.085412 6 6 6
1.265267 0.972629 0.139623 60 60 60
1.199649 0.922188 -0.239658 1 1 1
1.251190 0.961808 0.193772 39 39 39
1.271650 0.977536 -0.196941 1 1 1
1.772850 1.362815 0.354168 77 77 77
1.303178 1.001772 -0.143807 1 1 1
1.791544 1.377186 0.439242 80 80 80
1.358618 1.044389 -0.089809 1 1 1
1.815379 1.395508 0.528635 75 75 75
1.393568 1.071256 -0.030681 1 1 1
1.824152 1.402252 0.616507 92 92 92
1.376129 1.057850 0.030297 5 5 5
1.301613 1.000568 0.086040 6 6 6
1.262108 0.970201 0.139275 60 60 60
1.246469 0.958179 0.193041 61 61 61
1.274798 0.979955 -0.197428 1 1 1
1.769718 1.360407 0.353542 74 74 74
1.301598 1.000557 -0.143633 1 1 1
1.782205 1.370007 0.436953 82 82 82
1.339616 1.029782 -0.088552 1 1 1
1.806109 1.388382 0.525936 82 82 82
1.393568 1.071256 -0.030681 1 1 1
1.831810 1.408139 0.619095 90 90 90
1.391266 1.054498 0.030472 4 4 4
1.295659 0.982034 0.085203 6 6 6
1.273446 0.965198 0.139798 58 58 58
1.240533 0.940251 -0.246541 1 1 1
1.249798 0.947274 0.192554 68 68 68
1.289349 0.977251 -0.198647 1 1 1
1.778936 1.348330 0.353542 79 79 79
1.341723 1.016948 -0.147293 1 1 1
1.794618 1.360216 0.437716 80 80 80
1.367287 1.036323 -0.089913 1 1 1
1.803093 1.366639 0.522336 80 80 80
1.426326 1.081072 -0.031240 1 1 1
1.829036 1.386302 0.614954 85 85 85
1.400828 1.061746 0.030681 4 4 4
1.295659 0.982034 0.085203 6 6 6
1.278210 0.968808 0.140321 57 57 57
1.278315 0.968888 -0.254050 1 1 1
1.251380 0.948473 0.192797 58 58 58
1.294095 0.980848 -0.199378 1 1 1
1.769491 1.341171 0.351665 74 74 74
1.324257 1.003710 -0.145376 1 1 1
1.800877 1.364959 0.439242 77 77 77
1.359328 1.030291 -0.089390 1 1 1
1.799987 1.364285 0.521437 78 78 78
1.432701 1.085904 -0.031379 1 1 1
1.832115 1.388636 0.615989 85 85 85
1.403400 1.048350 0.030577 5 5 5
1.307284 0.976551 0.085517 6 6 6
1.244132 0.929376 -0.301860 1 1 1
1.278557 0.955092 0.139623 53 53 53
1.278718 0.955212 -0.252798 1 1 1
1.254790 0.937338 0.192310 52 52 52
1.300911 0.971790 -0.199378 1 1 1
1.775646 1.326420 0.351039 79 79 79
1.342405 1.002787 -0.146596 1 1 1
1.800925 1.345304 0.436953 80 80 80
1.408091 1.051854 -0.092111 1 1 1
1.809468 1.351686 0.521437 80 80 80
1.456268 1.087843 -0.031728 1 1 1
1.829383 1.366563 0.611848 90 90 90
1.401798 1.047153 0.030542 4 4 4
1.186536 0.886351 -0.341926 1 1 1
1.318485 0.984918 0.086250 6 6 6
1.253569 0.936426 -0.304150 1 1 1
1.278557 0.955092 0.139623 57 57 57
1.283466 0.958758 -0.253737 1 1 1
1.240477 0.926646 0.190116 42 42 42
1.313634 0.981294 -0.201328 1 1 1
1.775646 1.326420 0.351039 82 82 82
1.374330 1.026634 -0.150082 1 1 1
1.794633 1.340604 0.435426 82 82 82
1.406490 1.050659 -0.092007 1 1 1
1.809468 1.351686 0.521437 73 73 73
1.470686 1.098613 -0.032043 1 1 1
1.820097 1.359626 0.608742 90 90 90
1.412295 1.039712 0.030612 5 5 5
1.246053 0.917327 -0.357222 1 1 1
1.336587 0.983978 0.086982 7 7 7
1.263238 0.929979 -0.304913 1 1 1
1.281985 0.943780 0.139275 55 55 55
1.301263 0.957973 -0.255927 1 1 1
1.248515 0.919140 0.190360 66 66 66
1.330044 0.979160 -0.202791 1 1 1
1.781681 1.311649 0.350413 72 72 72
1.371836 1.009927 -0.149036 1 1 1
1.784976 1.314076 0.430847 85 85 85
1.433092 1.055023 -0.093263 1 1 1
1.818860 1.339020 0.521437 75 75 75
1.512138 1.113216 -0.032776 2 2 2
1.832656 1.349177 0.609778 87 87 87
1.420347 1.045640 0.030786 5 5 5
1.253899 0.923104 -0.359472 1 1 1
1.315678 0.968585 0.085622 6 6 6
1.260076 0.927651 -0.304150 1 1 1
1.281985 0.943780 0.139275 57 57 57
1.301263 0.957973 -0.255927 1 1 1
1.240522 0.913255 0.189141 95 95 95
1.365213 1.005052 -0.208153 1 1 1
1.784862 1.313992 0.351039 82 82 82
1.410344 1.038276 -0.153220 1 1 1
1.794462 1.321059 0.433136 85 85 85
1.441134 1.060943 -0.093786 1 1 1
1.806305 1.329778 0.517837 73 73 73
1.525021 1.122700 -0.033055 2 2 2
1.837323 1.352613 0.611331 92 92 92
1.233910 0.894844 -0.408416 0 0 0
1.431030 1.037798 0.030856 5 5 5
1.265205 0.917540 -0.360821 1 1 1
1.332276 0.966180 0.086250 6 6 6
1.241253 0.900169 -0.298044 1 1 1
1.291931 0.936922 0.139623 57 57 57
1.322477 0.959074 -0.258743 1 1 1
1.243811 0.902024 0.188654 84 84 84
1.349872 0.978941 -0.204740 1 1 1
1.778228 1.289589 0.347910 77 77 77
1.391931 1.009442 -0.150431 1 1 1
1.803870 1.308185 0.433136 88 88 88
1.448689 1.050604 -0.093786 1 1 1
1.812620 1.314530 0.516938 78 78 78
1.518446 1.101193 -0.032741 2 2 2
1.845392 1.338297 0.610813 90 90 90
1.233910 0.894844 -0.408416 0 0 0
1.434268 1.040146 0.030926 5 5 5
1.271516 0.922116 -0.362621 1 1 1
1.335510 0.968525 0.086459 7 7 7
1.228539 0.890949 -0.294991 1 1 1
1.275803 0.925225 0.137880 60 60 60
1.344865 0.975310 -0.263123 1 1 1
1.248632 0.905521 0.189385 87 87 87
1.365942 0.990595 -0.207178 1 1 1
1.775030 1.287269 0.347285 79 79 79
1.411286 1.023479 -0.152523 1 1 1
1.800691 1.305879 0.432373 88 88 88
1.477792 1.071710 -0.095670 1 1 1
1.812620 1.314530 0.516938 78 78 78
1.528159 1.108236 -0.032950 3 3 3
1.826625 1.324687 0.604601 90 90 90
1.261975 0.902153 -0.415663 0 0 0
1.434808 1.025707 0.030786 5 5 5
1.277763 0.913440 -0.362621 1 1 1
1.351820 0.966382 0.087087 7 7 7
1.224992 0.875715 -0.292701 1 1 1
1.275587 0.911885 0.137183 61 61 61
1.343438 0.960389 -0.261558 1 1 1
1.248307 0.892383 0.188410 81 81 81
1.401721 1.002055 -0.211565 1 1 1
1.783751 1.275157 0.347285 79 79 79
1.457120 1.041657 -0.156706 1 1 1
1.796761 1.284458 0.429320 88 88 88
1.501301 1.073241 -0.096717 1 1 1
1.824696 1.304428 0.517837 78 78 78
1.535667 1.097809 -0.032950 4 4 4
1.832456 1.309976 0.603566 74 74 74
1.290263 0.922376 -0.424981 0 0 0
1.434808 1.025707 0.030786 5 5 5
1.271422 0.908907 -0.360821 1 1 1
1.351820 0.966382 0.087087 6 6 6
1.209021 0.864298 -0.288885 1 1 1
1.272346 0.909567 0.136835 60 60 60
1.353079 0.967282 -0.263436 1 1 1
1.230543 0.879684 0.185729 80 80 80
1.417870 1.013599 -0.214003 1 1 1
1.786965 1.277455 0.347910 79 79 79
1.440911 1.030070 -0.154963 1 1 1
1.796761 1.284458 0.429320 90 90 90
1.501301 1.073241 -0.096717 1 1 1
1.821525 1.302162 0.516938 73 73 73
1.542174 1.102461 -0.033090 4 4 4
1.834028 1.311099 0.604084 92 92 92
1.287195 0.906671 -0.421875 0 0 0
1.453377 1.023726 0.031030 5 5 5
1.290481 0.908986 -0.364421 1 1 1
1.355268 0.954620 0.086878 6 6 6
1.216630 0.856967 -0.289266 1 1 1
1.290067 0.908694 0.138055 60 60 60
1.366259 0.962362 -0.264687 1 1 1
1.243146 0.875644 0.186704 78 78 78
1.418420 0.999103 -0.213028 1 1 1
1.789380 1.260399 0.346659 79 79 79
1.496934 1.054406 -0.160192 1 1 1
1.796054 1.265100 0.427031 88 88 88
1.521819 1.071935 -0.097554 1 1 1
1.817826 1.280436 0.513338 78 78 78
1.554738 1.095122 -0.033194 4 4 4
1.841557 1.297151 0.603566 78 78 78
1.306147 0.920020 -0.428087 0 0 0
1.455012 1.024878 0.031065 5 5 5
1.300041 0.915719 -0.367120 1 1 1
1.352003 0.952320 0.086668 6 6 6
1.190949 0.838878 -0.283161 1 1 1
1.283551 0.904105 0.137357 60 60 60
1.393714 0.981700 -0.270006 1 1 1
1.238278 0.872215 0.185973 82 82 82
1.424912 1.003676 -0.214003 1 1 1
1.779690 1.253573 0.344782 79 79 79
1.513222 1.065880 -0.161935 1 1 1
1.802474 1.269622 0.428557 93 93 93
1.528351 1.076536 -0.097973 1 1 1
1.814640 1.278191 0.512439 78 78 78
1.558007 1.097425 -0.033264 4 4 4
1.844716 1.299376 0.604601 90 90 90
1.296667 0.899865 -0.422910 0 0 0
1.471989 1.021536 0.031275 5 5 5
1.328815 0.922176 -0.373419 1 1 1
1.363541 0.946274 0.086982 7 7 7
1.185486 0.822708 -0.280489 1 1 1
1.280011 0.888306 0.136312 61 61 61
1.382682 0.959558 -0.266564 1 1 1
1.259014 0.873735 0.188166 74 74 74
1.477548 1.025393 -0.220827 1 1 1
1.781906 1.236613 0.343530 82 82 82
1.527174 1.059833 -0.162633 1 1 1
1.811294 1.257008 0.428557 88 88 88
1.548956 1.074949 -0.098810 1 1 1
1.823519 1.265492 0.512439 78 78 78
1.560702 1.083101 -0.033160 4 4 4
1.841045 1.277654 0.600460 80 80 80
1.303015 0.904271 -0.424981 0 0 0
1.460489 1.013555 0.031030 5 5 5
1.312806 0.911065 -0.368920 1 1 1
1.368463 0.949690 0.087296 6 6 6
1.198390 0.831662 -0.283542 1 1 1
1.286558 0.892850 0.137009 61 61 61
1.398910 0.970820 -0.269693 1 1 1
1.257383 0.872603 0.187923 68 68 68
1.474286 1.023130 -0.220340 1 1 1
1.781906 1.236613 0.343530 79 79 79
1.520627 1.055289 -0.161935 1 1 1
1.795165 1.245814 0.424741 90 90 90
1.588336 1.102279 -0.101322 1 1 1
1.826721 1.267714 0.513338 78 78 78
1.572202 1.091082 -0.033404 4 4 4
1.834697 1.273249 0.598390 78 78 78
1.325244 0.906055 -0.430157 0 0 0
1.472481 1.006720 0.031135 4 4 4
1.344873 0.919475 -0.376118 1 1 1
1.381655 0.944623 0.087715 7 7 7
1.217132 0.832140 -0.286595 1 1 1
1.284536 0.878224 0.136137 58 58 58
1.426853 0.975524 -0.273760 1 1 1
1.261806 0.862683 0.187679 68 68 68
1.514167 1.035220 -0.225215 1 1 1
1.793758 1.226373 0.344156 82 82 82
1.534536 1.049146 -0.162633 1 1 1
1.794095 1.226603 0.422451 90 90 90
1.607534 1.099054 -0.102055 1 1 1
1.832309 1.252730 0.512439 78 78 78
1.576480 1.077822 -0.033334 4 4 4
1.843541 1.260409 0.598390 74 74 74
1.334813 0.912597 -0.433263 0 0 0
1.475783 1.008977 0.031205 5 5 5
1.357743 0.928274 -0.379717 1 1 1
1.378357 0.942368 0.087506 6 6 6
1.200925 0.821060 -0.282779 1 1 1
1.284536 0.878224 0.136137 51 51 51
1.435006 0.981098 -0.275325 1 1 1
1.265083 0.864924 0.188166 68 68 68
1.520722 1.039701 -0.226190 1 1 1
1.793758 1.226373 0.344156 86 86 86
1.557562 1.064889 -0.165073 1 1 1
1.800577 1.231036 0.423978 93 93 93
1.620724 1.108072 -0.102892 1 1 1
1.822657 1.246131 0.509739 82 82 82
1.584733 1.083465 -0.033509 4 4 4
1.841946 1.259319 0.597872 82 82 82
1.353970 0.911890 -0.437404 0 0 0
1.479474 0.996416 0.031135 5 5 5
1.357725 0.914419 -0.377918 1 1 1
1.374963 0.926028 0.086878 6 6 6
1.191972 0.802785 -0.279344 1 1 1
1.298899 0.874800 0.137009 42 42 42
1.490973 1.004160 -0.284711 1 1 1
1.280970 0.862724 0.189629 68 68 68
1.501599 1.011317 -0.222290 1 1 1
1.785891 1.202786 0.341027 91 91 91
1.583136 1.066232 -0.166990 1 1 1
1.805871 1.216242 0.423214 93 93 93
1.638360 1.103424 -0.103521 1 1 1
1.821614 1.226845 0.507040 82 82 82
1.582307 1.065673 -0.033299 4 4 4
1.855500 1.249667 0.599425 72 72 72
1.353970 0.911890 -0.437404 0 0 0
1.489425 1.003118 0.031345 5 5 5
1.428844 0.962317 -0.397713 1 1 1
1.386559 0.933838 0.087610 6 6 6
1.201743 0.809366 -0.281634 1 1 1
1.287331 0.867009 0.135789 23 23 23
1.481143 0.997540 -0.282834 1 1 1
1.285909 0.866051 0.190360 71 71 71
1.521357 1.024624 -0.225215 1 1 1
1.779337 1.198372 0.339776 91 91 91
1.602967 1.079587 -0.169082 1 1 1
1.809128 1.218435 0.423978 90 90 90
1.656582 1.115697 -0.104672 1 1 1
1.818382 1.224668 0.506140 82 82 82
1.587283 1.069024 -0.033404 4 4 4
1.842681 1.241033 0.595284 78 78 78
1.372864 0.911438 -0.441545 0 0 0
1.487716 0.987688 0.031170 5 5 5
1.422206 0.944196 -0.394114 1 1 1
1.392722 0.924622 0.087610 6 6 6
1.216898 0.807893 -0.283924 1 1 1
1.291393 0.857350 0.135614 15 15 15
1.481143 0.983324 -0.281582 1 1 1
1.296586 0.860798 0.191091 78 78 78
1.554580 1.032079 -0.229114 1 1 1
1.793829 1.190915 0.341027 93 93 93
1.610092 1.068932 -0.169082 1 1 1
1.804084 1.197723 0.420925 96 96 96
1.670601 1.109104 -0.105091 1 1 1
1.832958 1.216892 0.507939 82 82 82
1.601002 1.062898 -0.033544 4 4 4
1.844434 1.224511 0.593213 74 74 74
1.398615 0.928534 -0.449828 0 0 0
1.491048 0.989900 0.031240 5 5 5
1.409218 0.935574 -0.390515 1 1 1
1.402706 0.931250 0.088238 6 6 6
1.216898 0.807893 -0.283924 1 1 1
1.303012 0.865064 0.136835 8 8 8
1.514058 1.005176 -0.287839 1 1 1
1.291625 0.857504 0.190360 82 82 82
1.590964 1.056234 -0.234477 1 1 1
1.790538 1.188730 0.340401 91 91 91
1.631670 1.083258 -0.171348 1 1 1
1.797541 1.193379 0.419398 93 93 93
1.643978 1.091429 -0.103416 1 1 1
1.829711 1.214737 0.507040 84 84 84
1.620994 1.076170 -0.033962 4 4 4
1.846043 1.225579 0.593731 82 82 82
1.421232 0.929320 -0.455004 0 0 0
1.506290 0.984938 0.031414 4 4 4
1.445074 0.944909 -0.398613 1 1 1
1.402486 0.917062 0.087820 6 6 6
1.209363 0.790782 -0.280871 1 1 1
1.315690 0.860308 0.137532 8 8 8
1.509465 0.987014 -0.285649 1 1 1
1.289273 0.843034 0.189141 84 84 84
1.586669 1.037496 -0.232770 1 1 1
1.792180 1.171876 0.339150 91 91 91
1.652533 1.080564 -0.172743 1 1 1
1.805829 1.180801 0.419398 96 96 96
1.651557 1.079926 -0.103416 1 1 1
1.825099 1.193401 0.503440 84 84 84
1.628467 1.064827 -0.033962 4 4 4
1.849703 1.209490 0.592178 82 82 82
1.411531 0.922976 -0.451898 0 0 0
1.506290 0.984938 0.031414 4 4 4
1.445074 0.944909 -0.398613 1 1 1
1.410845 0.922528 0.088343 6 6 6
1.194575 0.781112 -0.277436 1 1 1
1.319025 0.862488 0.137880 8 8 8
1.572290 1.028094 -0.297538 1 1 1
1.304225 0.852811 0.191335 76 76 76
1.606606 1.050533 -0.235695 1 1 1
1.782260 1.165390 0.337273 99 99 99
1.635858 1.069660 -0.171000 1 1 1
1.814045 1.186173 0.421306 99 99 99
1.654901 1.082112 -0.103625 1 1 1
1.821837 1.191268 0.502541 84 84 84
1.621773 1.060450 -0.033823 4 4 4
1.854554 1.212662 0.593731 78 78 78
1.440679 0.927743 -0.459145 0 0 0
1.514811 0.975481 0.031449 4 4 4
1.471296 0.947459 -0.404012 1 1 1
1.417251 0.912656 0.088343 6 6 6
1.199999 0.772754 -0.277436 1 1 1
1.318314 0.848944 0.137183 8 8 8
1.592716 1.025649 -0.300041 1 1 1
1.311816 0.844760 0.191579 73 73 73
1.615570 1.040366 -0.235939 1 1 1
1.783709 1.148641 0.336021 89 89 89
1.636585 1.053899 -0.170302 1 1 1
1.817330 1.170291 0.420161 93 93 93
1.652340 1.064044 -0.102997 1 1 1
1.828470 1.177466 0.502091 87 87 87
1.625774 1.046937 -0.033753 4 4 4
1.853230 1.193410 0.590625 78 78 78
1.460169 0.940294 -0.465357 0 0 0
1.506405 0.970067 0.031275 4 4 4
1.527002 0.983331 -0.419309 1 1 1
1.425647 0.918062 0.088866 6 6 6
1.223107 0.787635 -0.282779 1 1 1
1.318314 0.848944 0.137183 7 7 7
1.582751 1.019232 -0.298164 1 1 1
1.316823 0.847984 0.192310 76 76 76
1.608894 1.036067 -0.234964 1 1 1
1.783709 1.148641 0.336021 69 69 69
1.629885 1.049584 -0.169605 1 1 1
1.804125 1.161788 0.417108 90 90 90
1.652340 1.064044 -0.102997 1 1 1
1.833386 1.180631 0.503440 84 84 84
1.634180 1.052350 -0.033927 4 4 4
1.846733 1.189226 0.588555 74 74 74
1.482849 0.940682 -0.470533 0 0 0
1.521416 0.965147 0.031449 5 5 5
1.545179 0.980222 -0.422458 7 7 7
1.433549 0.909407 0.088971 6 6 6
1.231756 0.781395 -0.283542 1 1 1
1.327426 0.842086 0.137532 8 8 8
1.594656 1.011609 -0.299103 1 1 1
1.322565 0.839001 0.192310 78 78 78
1.629319 1.033599 -0.236914 1 1 1
1.688067 1.070867 0.316623 46 46 46
1.628579 1.033129 -0.168734 1 1 1
1.805360 1.145274 0.415582 93 93 93
1.646052 1.044213 -0.102160 1 1 1
1.836443 1.164992 0.502091 87 87 87
1.654814 1.049772 -0.034207 4 4 4
1.861310 1.180767 0.590625 76 76 76
1.502424 0.953100 -0.476745 0 0 0
1.523104 0.966218 0.031484 4 4 4
1.551761 0.984398 -0.424258 11 11 11
1.426803 0.905127 0.088552 6 6 6
1.254965 0.796118 -0.288885 1 1 1
1.337521 0.848489 0.138578 7 7 7
1.601328 1.015842 -0.300354 1 1 1
1.325917 0.841128 0.192797 76 76 76
1.614233 1.024028 -0.234720 1 1 1
1.279395 0.811615 0.239970 37 37 37
1.640356 1.040600 -0.169954 1 1 1
1.802044 1.143171 0.414819 93 93 93
1.646052 1.044213 -0.102160 1 1 1
1.828215 1.159773 0.499841 90 90 90
1.651437 1.047629 -0.034137 4 4 4
1.856416 1.177663 0.589072 82 82 82
1.509206 0.942324 -0.476745 0 0 0
1.543549 0.963767 0.031763 4 4 4
1.548848 0.967076 -0.421558 1 1 1
1.431549 0.893837 0.088448 6 6 6
1.250638 0.780879 -0.286595 1 1 1
1.345248 0.839952 0.138752 7 7 7
1.606881 1.003311 -0.300041 1 1 1
1.331902 0.831619 0.192797 68 68 68
1.616468 1.009297 -0.233989 1 1 1
1.280143 0.799301 0.239032 50 50 50
1.657900 1.035167 -0.171000 1 1 1
1.820170 1.136485 0.417108 96 96 96
1.660258 1.036639 -0.102578 1 1 1
1.826549 1.140468 0.497142 90 90 90
1.655499 1.033667 -0.034067 4 4 4
1.866434 1.165372 0.589590 74 74 74
1.522315 0.950510 -0.480886 0 0 0
1.546941 0.965886 0.031833 4 4 4
1.547195 0.966044 -0.421108 1 1 1
1.445102 0.902299 0.089285 6 6 6
1.250638 0.780879 -0.286595 1 1 1
1.341868 0.837841 0.138403 7 7 7
1.623637 1.013773 -0.303170 1 1 1
1.321799 0.825310 0.191335 68 68 68
1.629939 1.017708 -0.235939 1 1 1
1.280143 0.799301 0.239032 63 63 63
1.644380 1.026725 -0.169605 1 1 1
1.820170 1.136485 0.417108 96 96 96
1.643317 1.026061 -0.101532 1 1 1
1.826549 1.140468 0.497142 90 90 90
1.658891 1.035785 -0.034137 5 5 5
1.853325 1.157187 0.585449 76 76 76
1.540269 0.947209 -0.484509 2 2 2
1.544963 0.950096 0.031659 5 5 5
1.555394 0.956511 -0.421558 2 2 2
1.454613 0.894534 0.089494 6 6 6
1.286026 0.790859 -0.293464 1 1 1
1.345843 0.827644 0.138229 8 8 8
1.600212 0.984072 -0.297538 1 1 1
1.329077 0.817334 0.191579 74 74 74
1.619919 0.996191 -0.233502 1 1 1
1.277141 0.785395 0.237468 63 63 63
1.624176 0.998809 -0.166816 1 1 1
1.814485 1.115842 0.414056 93 93 93
1.667276 1.025314 -0.102578 1 1 1
1.835930 1.129030 0.497592 94 94 94
1.671013 1.027612 -0.034242 5 5 5
1.857867 1.142521 0.584413 76 76 76
1.551788 0.954293 -0.488133 1 1 1
1.550073 0.953239 0.031763 4 4 4
1.545435 0.950386 -0.418859 2 2 2
1.461418 0.898719 0.089913 6 6 6
1.319473 0.811428 -0.301097 1 1 1
1.352632 0.831819 0.138926 7 7 7
1.591798 0.978898 -0.295974 1 1 1
1.302022 0.800696 0.187679 74 74 74
1.626682 1.000350 -0.234477 1 1 1
1.277141 0.785395 0.237468 63 63 63
1.634359 1.005071 -0.167862 1 1 1
1.811140 1.113785 0.413292 93 93 93
1.653666 1.016944 -0.101741 1 1 1
1.839250 1.131072 0.498492 90 90 90
1.684640 1.035992 -0.034521 4 4 4
1.864450 1.146569 0.586484 78 78 78
1.566676 0.948439 -0.490721 0 0 0
1.565244 0.947572 0.031938 4 4 4
1.555366 0.941592 -0.419759 2 2 2
1.450571 0.878151 0.088866 5 5 5
1.345260 0.814397 -0.305676 1 1 1
1.361815 0.824419 0.139275 7 7 7
1.607043 0.972876 -0.297538 1 1 1
1.305882 0.790559 0.187435 87 87 87
1.614947 0.977661 -0.231795 1 1 1
1.289352 0.780552 0.238719 65 65 65
1.634518 0.989510 -0.167165 1 1 1
1.820551 1.102131 0.413674 99 99 99
1.660725 1.005375 -0.101741 1 1 1
1.828764 1.107102 0.493543 90 90 90
1.684989 1.020064 -0.034381 3 3 3
1.869104 1.131524 0.585449 78 78 78
1.566676 0.948439 -0.490721 0 0 0
1.577218 0.954821 0.032182 4 4 4
1.548698 0.937555 -0.417959 2 2 2
1.455697 0.881254 0.089180 6 6 6
1.325106 0.802197 -0.301097 1 1 1
1.363519 0.825451 0.139449 7 7 7
1.603663 0.970830 -0.296913 1 1 1
1.299090 0.786447 0.186460 84 84 84
1.613249 0.976633 -0.231552 1 1 1
1.277523 0.773391 0.236529 61 61 61
1.632814 0.988478 -0.166990 1 1 1
1.823910 1.104164 0.414437 99 99 99
1.664142 1.007443 -0.101950 1 1 1
1.827096 1.106093 0.493093 98 98 98
1.667883 1.009708 -0.034032 2 2 2
1.862493 1.127522 0.583378 78 78 78
1.569940 0.935501 -0.489686 0 0 0
1.590717 0.947881 0.032322 5 5 5
1.560227 0.929713 -0.419309 2 2 2
1.470393 0.876182 0.089704 6 6 6
1.334047 0.794936 -0.301860 1 1 1
1.365825 0.813872 0.139101 7 7 7
1.612099 0.960622 -0.297225 1 1 1
1.307959 0.779391 0.186948 87 87 87
1.614912 0.962299 -0.230821 1 1 1
1.281194 0.763442 0.236216 55 55 55
1.643098 0.979094 -0.167339 1 1 1
1.833260 1.092409 0.414819 96 96 96
1.667703 0.993756 -0.101741 1 1 1
1.834774 1.093311 0.493093 94 94 94
1.680044 1.001110 -0.034137 1 1 1
1.858702 1.107569 0.579755 82 82 82
1.561642 0.930556 -0.487097 0 0 0
1.578692 0.940716 0.032078 5 5 5
1.558553 0.928716 -0.418859 2 2 2
1.477256 0.880272 0.090123 6 6 6
1.350912 0.804986 -0.305676 1 1 1
1.364114 0.812852 0.138926 8 8 8
1.590038 0.947477 -0.293158 1 1 1
1.314780 0.783455 0.187923 76 76 76
1.630259 0.971444 -0.233014 1 1 1
1.277800 0.761420 0.235590 56 56 56
1.644810 0.980114 -0.167513 1 1 1
1.816395 1.082359 0.411003 93 93 93
1.677998 0.999890 -0.102369 1 1 1
1.828078 1.089321 0.491293 90 90 90
1.673173 0.997016 -0.033997 1 1 1
1.860362 1.108558 0.580272 85 85 85
1.572939 0.922838 -0.488650 0 0 0
1.586783 0.930960 0.032112 4 4 4
1.537946 0.902307 -0.411660 1 1 1
1.483213 0.870196 0.090123 6 6 6
1.315720 0.771929 -0.296517 1 1 1
1.374770 0.806573 0.139449 7 7 7
1.594747 0.935632 -0.292845 1 1 1
1.299536 0.762434 0.184998 82 82 82
1.629985 0.956307 -0.232039 1 1 1
1.303399 0.764700 0.239345 55 55 55
1.634258 0.958814 -0.165770 1 1 1
1.813560 1.064010 0.408713 88 88 88
1.652034 0.969243 -0.100380 1 1 1
1.847216 1.083755 0.494442 84 84 84
1.679921 0.985604 -0.033997 1 1 1
1.871197 1.097825 0.581308 80 80 80
1.579604 0.926748 -0.490721 0 0 0
1.597132 0.937032 0.032322 5 5 5
1.529542 0.897377 -0.409411 1 1 1
1.486658 0.872217 0.090332 6 6 6
1.356360 0.795772 -0.305676 1 1 1
1.378207 0.808589 0.139798 7 7 7
1.608377 0.943629 -0.295348 1 1 1
1.299536 0.762434 0.184998 82 82 82
1.612863 0.946261 -0.229602 1 1 1
1.315325 0.771697 0.241535 57 57 57
1.651443 0.968896 -0.167513 1 1 1
1.813560 1.064010 0.408713 93 93 93
1.670983 0.980360 -0.101532 1 1 1
1.832088 1.074880 0.490393 98 98 98
1.676471 0.983580 -0.033927 1 1 1
1.867865 1.095870 0.580272 85 85 85
1.582689 0.913766 -0.489686 0 0 0
1.610562 0.929858 0.032461 5 5 5
1.537457 0.887651 -0.409861 1 1 1
1.485793 0.857823 0.089913 6 6 6
1.406089 0.811806 -0.315598 1 1 1
1.395897 0.805922 0.141018 7 7 7
1.597818 0.922501 -0.292220 1 1 1
1.309985 0.756320 0.185729 80 80 80
1.624588 0.937956 -0.230333 1 1 1
1.313838 0.758545 0.240283 60 60 60
1.654716 0.955351 -0.167165 1 1 1
1.829445 1.056231 0.410621 99 99 99
1.670868 0.964676 -0.101113 1 1 1
1.829422 1.056217 0.487694 99 99 99
1.671174 0.964853 -0.033683 1 1 1
1.873797 1.081837 0.579755 82 82 82
1.569305 0.906038 -0.485545 0 0 0
1.614025 0.931858 0.032531 5 5 5
1.547583 0.893497 -0.412560 1 1 1
1.497900 0.864813 0.090646 5 5 5
1.406089 0.811806 -0.315598 1 1 1
1.387270 0.800941 0.140146 7 7 7
1.490043 0.860277 -0.272509 1 1 1
1.318581 0.761283 0.186948 94 94 94
1.629745 0.940934 -0.231064 1 1 1
1.315549 0.759532 0.240596 55 55 55
1.627109 0.939412 -0.164376 1 1 1
1.827745 1.055249 0.410239 90 90 90
1.663949 0.960682 -0.100694 1 1 1
1.832797 1.058166 0.488594 97 97 97
1.672906 0.965853 -0.033718 1 1 1
1.858739 1.073144 0.575096 85 85 85
1.575592 0.895061 -0.485545 0 0 0
1.613537 0.916616 0.032392 5 5 5
1.570727 0.892297 -0.417059 1 1 1
1.514321 0.860254 0.091274 5 5 5
1.411722 0.801970 -0.315598 1 1 1
1.394560 0.792220 0.140321 7 7 7
1.320819 0.750330 -0.240596 1 1 1
1.316959 0.748137 0.185973 82 82 82
1.646630 0.935416 -0.232527 1 1 1
1.329407 0.755208 0.242161 60 60 60
1.642289 0.932950 -0.165247 1 1 1
1.824825 1.036645 0.407950 93 93 93
1.670616 0.949042 -0.100694 1 1 1
1.840140 1.045345 0.488594 94 94 94
1.686563 0.958101 -0.033858 1 1 1
1.869545 1.062050 0.576131 80 80 80
1.572232 0.893152 -0.484509 0 0 0
1.618753 0.919580 0.032496 5 5 5
1.575810 0.895185 -0.418409 1 1 1
1.512584 0.859268 0.091169 6 6 6
1.497074 0.850456 -0.334679 1 1 1
1.399757 0.795173 0.140844 7 7 7
1.221199 0.693738 -0.222450 1 1 1
1.304877 0.741273 0.184266 78 78 78
1.632822 0.927572 -0.230577 1 1 1
1.329407 0.755208 0.242161 60 60 60
1.644021 0.933934 -0.165422 1 1 1
1.817997 1.032766 0.406423 88 88 88
1.663669 0.945096 -0.100276 1 1 1
1.836751 1.043420 0.487694 99 99 99
1.690041 0.960077 -0.033927 1 1 1
1.866186 1.060141 0.575096 85 85 85
1.571684 0.878384 -0.482439 0 0 0
1.623388 0.907281 0.032461 4 4 4
1.576918 0.881310 -0.417059 2 2 2
1.525520 0.852584 0.091588 5 5 5
1.417286 0.792094 -0.315598 1 1 1
1.415709 0.791213 0.141890 7 7 7
1.232910 0.689050 -0.223701 1 1 1
1.304822 0.729240 0.183535 54 54 54
1.614998 0.902592 -0.227164 1 1 1
1.344993 0.751691 0.244038 57 57 57
1.653980 0.924378 -0.165770 1 1 1
1.828591 1.021965 0.407186 88 88 88
1.673713 0.935407 -0.100485 1 1 1
1.833784 1.024867 0.484994 92 92 92
1.682737 0.940450 -0.033648 1 1 1
1.876914 1.048972 0.576131 92 92 92
1.585175 0.885924 -0.486580 0 0 0
1.635607 0.914110 0.032706 4 4 4
1.575217 0.880359 -0.416609 2 2 2
1.516803 0.847712 0.091065 6 6 6
1.417286 0.792094 -0.315598 1 1 1
1.413970 0.790241 0.141715 7 7 7
1.244981 0.695796 -0.225891 1 1 1
1.315219 0.735051 0.184998 36 36 36
1.618464 0.904529 -0.227652 1 1 1
1.329474 0.743018 0.241222 47 47 47
1.636588 0.914658 -0.164027 1 1 1
1.832018 1.023880 0.407950 90 90 90
1.677200 0.937356 -0.100694 1 1 1
1.826980 1.021064 0.483195 94 94 94
1.689720 0.944352 -0.033788 1 1 1
1.880287 1.050857 0.577166 91 91 91
1.581163 0.869252 -0.483474 0 0 0
1.654215 0.909412 0.032950 4 4 4
1.588155 0.873096 -0.418409 1 1 1
1.531435 0.841914 0.091588 5 5 5
1.417707 0.779391 0.141541 7 7 7
1.235960 0.679475 -0.223388 1 1 1
1.332495 0.732545 0.186704 21 21 21
1.624739 0.893208 -0.227652 1 1 1
1.343284 0.738476 0.242786 41 41 41
1.642933 0.903210 -0.164027 1 1 1
1.835681 1.009174 0.407186 93 93 93
1.669702 0.917926 -0.099857 1 1 1
1.837479 1.010162 0.484095 99 99 99
1.678748 0.922899 -0.033439 1 1 1
1.867263 1.026536 0.570955 94 94 94
1.574392 0.865529 -0.481403 0 0 0
1.636692 0.899779 0.032601 4 4 4
1.588155 0.873096 -0.418409 1 1 1
1.534935 0.843838 0.091797 5 5 5
1.408977 0.774592 0.140669 7 7 7
1.237691 0.680426 -0.223701 1 1 1
1.341193 0.737327 0.187923 11 11 11
1.645614 0.904684 -0.230577 1 1 1
1.350208 0.742283 0.244038 35 35 35
1.639442 0.901291 -0.163678 1 1 1
1.828799 1.005391 0.405660 93 93 93
1.680203 0.923699 -0.100485 1 1 1
1.840894 1.012040 0.484994 97 97 97
1.671738 0.919046 -0.033299 1 1 1
1.863877 1.024675 0.569920 91 91 91
1.590592 0.860030 -0.484509 0 0 0
1.653487 0.894037 0.032811 5 5 5
1.585641 0.857353 -0.416159 1 1 1
1.547817 0.836901 0.092216 6 6 6
1.490378 0.805845 -0.329336 1 1 1
1.430124 0.773265 0.142238 7 7 7
1.237198 0.668950 -0.222763 1 1 1
1.346308 0.727946 0.187923 11 11 11
1.644905 0.889397 -0.229602 1 1 1
1.362308 0.736597 0.245289 50 50 50
1.635178 0.884138 -0.162633 1 1 1
1.821957 0.985129 0.402607 93 93 93
1.672556 0.904347 -0.099648 1 1 1
1.844486 0.997310 0.484095 92 92 92
1.692186 0.914962 -0.033578 1 1 1
1.874384 1.013475 0.570955 91 91 91
1.580396 0.854517 -0.481403 0 0 0
1.662283 0.898793 0.032985 5 5 5
1.594212 0.861987 -0.418409 1 1 1
1.540789 0.833102 0.091797 6 6 6
1.473109 0.796507 -0.325520 1 1 1
1.431876 0.774213 0.142412 7 7 7
1.251099 0.676467 -0.225266 1 1 1
1.344561 0.727002 0.187679 11 11 11
1.620458 0.876179 -0.226190 1 1 1
1.362308 0.736597 0.245289 50 50 50
1.656209 0.895509 -0.164724 1 1 1
1.825411 0.986996 0.403370 90 90 90
1.672556 0.904347 -0.099648 1 1 1
1.834201 0.991749 0.481395 90 90 90
1.699222 0.918766 -0.033718 1 1 1
1.874384 1.013475 0.570955 94 94 94
1.596409 0.849183 -0.484509 0 0 0
1.680720 0.894031 0.033229 5 5 5
1.579397 0.840134 -0.413010 1 1 1
1.548187 0.823532 0.091902 5 5 5
1.502762 0.799369 -0.330863 1 1 1
1.445908 0.769127 0.143284 7 7 7
1.243466 0.661441 -0.223076 1 1 1
1.361747 0.724358 0.189385 11 11 11
1.629890 0.866993 -0.226677 1 1 1
1.367290 0.727307 0.245289 28 28 28
1.662266 0.884215 -0.164724 1 1 1
1.839021 0.978236 0.404897 93 93 93
1.671619 0.889190 -0.099229 1 1 1
1.846070 0.981986 0.482745 94 94 94
1.677189 0.892153 -0.033160 1 1 1
1.881239 1.000694 0.570955 87 87 87
1.575942 0.838296 -0.478298 0 0 0
1.675424 0.891214 0.033125 5 5 5
1.586279 0.843794 -0.414810 1 1 1
1.548187 0.823532 0.091902 5 5 5
1.502762 0.799369 -0.330863 1 1 1
1.433595 0.762577 0.142064 7 7 7
1.245210 0.662369 -0.223388 1 1 1
1.363499 0.725291 0.189629 11 11 11
1.633395 0.868857 -0.227164 1 1 1
1.369034 0.728235 0.245602 36 36 36
1.658748 0.882344 -0.164376 1 1 1
1.835554 0.976392 0.404133 88 88 88
1.664566 0.885438 -0.098810 1 1 1
1.837468 0.977410 0.480495 90 90 90
1.687782 0.897788 -0.033369 1 1 1
1.604937 0.853720 0.487097 41 41 41
1.585180 0.829064 -0.479333 0 0 0
1.683377 0.880422 0.033160 5 5 5
1.595584 0.834506 -0.415710 1 1 1
1.557439 0.814555 0.092111 5 5 5
1.508306 0.788859 -0.330863 1 1 1
1.437118 0.751627 0.141890 7 7 7
1.239302 0.648167 -0.221511 1 1 1
1.373807 0.718514 0.190360 11 11 11
1.635903 0.855593 -0.226677 1 1 1
1.372334 0.717744 0.245289 50 50 50
1.657806 0.867048 -0.163678 1 1 1
1.835367 0.959915 0.402607 88 88 88
1.677786 0.877498 -0.099229 1 1 1
1.844247 0.964559 0.480495 100 100 100
1.690465 0.884129 -0.033299 1 1 1
1.593739 0.833541 0.481921 78 78 78
1.581756 0.827274 -0.478298 0 0 0
1.683377 0.880422 0.033160 5 5 5
1.588677 0.830893 -0.413910 1 1 1
1.571597 0.821960 0.092949 5 5 5
1.487430 0.777940 -0.326283 1 1 1
1.453008 0.759937 0.143458 7 7 7
1.253305 0.655491 -0.224014 1 1 1
1.370289 0.716674 0.189872 11 11 11
1.646457 0.861113 -0.228139 1 1 1
1.379336 0.721406 0.246541 47 47 47
1.654275 0.865202 -0.163330 1 1 1
1.828408 0.956275 0.401081 90 90 90
1.670707 0.873796 -0.098810 1 1 1
1.844247 0.964559 0.480495 90 90 90
1.694009 0.885983 -0.033369 1 1 1
1.600587 0.837122 0.483992 68 68 68
1.580621 0.812678 -0.476227 0 0 0
1.709045 0.878707 0.033544 6 6 6
1.590973 0.818000 -0.413010 1 1 1
1.563087 0.803663 0.092111 5 5 5
1.541713 0.792673 -0.336969 1 1 1
1.467137 0.754330 0.144330 7 7 7
1.254337 0.644919 -0.223388 1 1 1
1.378789 0.708906 0.190360 11 11 11
1.634774 0.840521 -0.225702 1 1 1
1.642556 0.844521 -0.161587 1 1 1
1.838532 0.945283 0.401844 85 85 85
1.690976 0.869417 -0.099648 1 1 1
1.759082 0.904434 0.456651 36 36 36
1.703709 0.875964 -0.033439 1 1 1
1.596084 0.820628 0.480886 80 80 80
1.580621 0.812678 -0.476227 0 0 0
1.707266 0.877792 0.033509 6 6 6
1.601371 0.823346 -0.415710 1 1 1
1.566640 0.805489 0.092321 5 5 5
1.541713 0.792673 -0.336969 1 1 1
1.472453 0.757063 0.144853 7 7 7
1.257851 0.646725 -0.224014 1 1 1
1.375258 0.707090 0.189872 11 11 11
1.631244 0.838705 -0.225215 1 1 1
1.718126 0.883376 0.305986 43 43 43
1.656731 0.851810 -0.162981 1 1 1
1.838532 0.945283 0.401844 93 93 93
1.683871 0.865764 -0.099229 1 1 1
1.568443 0.806416 0.407161 72 72 72
1.682369 0.864991 -0.033020 1 1 1
1.596084 0.820628 0.480886 74 74 74
1.572463 0.794652 -0.472086 0 0 0
1.725846 0.872166 0.033753 6 6 6
1.600123 0.808631 -0.413910 1 1 1
1.586485 0.801739 0.093158 5 5 5
1.536696 0.776577 -0.334679 1 1 1
1.467033 0.741373 0.143807 7 7 7
1.242942 0.628127 -0.220573 1 1 1
1.387248 0.701053 0.190847 9 9 9
1.651233 0.834459 -0.227164 1 1 1
1.338146 0.676239 0.237468 37 37 37
1.655524 0.836628 -0.162284 1 1 1
1.841582 0.930653 0.401081 85 85 85
1.686309 0.852186 -0.099020 1 1 1
1.575774 0.796326 0.407611 81 81 81
1.695505 0.856833 -0.033160 1 1 1
1.589704 0.803366 0.477262 72 72 72
1.579359 0.798138 -0.474156 0 0 0
1.713353 0.865852 0.033509 6 6 6
1.596645 0.806873 -0.413010 1 1 1
1.591833 0.804442 0.093472 4 4 4
1.536696 0.776577 -0.334679 1 1 1
1.465255 0.740474 0.143633 7 7 7
1.251757 0.632582 -0.222137 1 1 1
1.392563 0.703739 0.191579 9 9 9
1.651233 0.834459 -0.227164 1 1 1
1.339909 0.677130 0.237780 53 53 53
1.669750 0.843817 -0.163678 1 1 1
1.834573 0.927111 0.399554 88 88 88
1.693440 0.855789 -0.099438 1 1 1
1.589688 0.803357 0.411211 100 100 100
1.684797 0.851421 -0.032950 1 1 1
1.579359 0.798138 0.474156 78 78 78
1.574511 0.781937 -0.471051 0 0 0
1.715774 0.852091 0.033439 5 5 5
1.598748 0.793973 -0.412110 1 1 1
1.602777 0.795974 0.093786 4 4 4
1.570213 0.779802 -0.340785 1 1 1
1.481095 0.735544 0.144679 7 7 7
1.241989 0.616799 -0.219634 1 1 1
1.377885 0.684288 0.188897 4 4 4
1.639239 0.814082 -0.224727 1 1 1
1.341065 0.666002 0.237155 61 61 61
1.661325 0.825050 -0.162284 1 1 1
1.826934 0.907295 0.396501 90 90 90
1.674329 0.831509 -0.097973 1 1 1
1.593512 0.791373 0.410761 100 100 100
1.697864 0.843196 -0.033090 1 1 1
1.591814 0.790530 0.476227 78 78 78
1.591814 0.790530 -0.476227 0 0 0
1.726520 0.857427 0.033648 5 5 5
1.605730 0.797440 -0.413910 1 1 1
1.597410 0.793309 0.093472 6 6 6
1.559663 0.774563 -0.338495 1 1 1
1.484664 0.737317 0.145027 7 7 7
1.259681 0.625585 -0.222763 1 1 1
1.342327 0.666629 0.184023 1 1 1
1.621460 0.805252 -0.222290 1 1 1
1.342834 0.666881 0.237468 62 62 62
1.679169 0.833912 -0.164027 1 1 1
1.795283 0.891577 0.389632 45 45 45
1.656441 0.822625 -0.096926 1 1 1
1.570822 0.780105 0.404912 88 88 88
1.701446 0.844975 -0.033160 1 1 1
1.591814 0.790530 0.476227 65 65 65
1.576460 0.769231 -0.470015 0 0 0
1.741449 0.849738 0.033823 4 4 4
1.604252 0.782793 -0.412110 1 1 1
1.608295 0.784765 0.093786 5 5 5
1.573855 0.767960 -0.340403 1 1 1
1.495147 0.729555 0.145550 5 5 5
1.271119 0.620241 -0.224014 1 1 1
1.382629 0.674652 0.188897 1 1 1
1.637746 0.799136 -0.223752 1 1 1
1.335030 0.651426 0.235277 61 61 61
1.659882 0.809937 -0.161587 1 1 1
1.575619 0.768821 0.340785 97 97 97
1.680094 0.819799 -0.097973 1 1 1
1.560468 0.761428 0.400863 94 94 94
1.696520 0.827815 -0.032950 1 1 1
1.590349 0.776009 0.474156 74 74 74
1.579932 0.770926 -0.471051 0 0 0
1.741449 0.849738 0.033823 4 4 4
1.600749 0.781083 -0.411211 2 2 2
1.610090 0.785641 0.093891 5 5 5
1.575619 0.768821 -0.340785 1 1 1
1.473660 0.719070 0.143458 1 1 1
1.278220 0.623706 -0.225266 1 1 1
1.382629 0.674652 0.188897 1 1 1
1.630610 0.795654 -0.222777 1 1 1
1.336805 0.652292 0.235590 63 63 63
1.677788 0.818674 -0.163330 1 1 1
1.586206 0.773987 0.343075 100 100 100
1.690863 0.825055 -0.098601 1 1 1
1.562219 0.762283 0.401313 100 100 100
1.703709 0.831322 -0.033090 1 1 1
1.586877 0.774314 0.473121 78 78 78
1.574823 0.754867 -0.467945 0 0 0
1.727503 0.828052 0.033439 3 3 3
1.620222 0.776628 -0.414810 1 1 1
1.620938 0.776971 0.094205 5 5 5
1.577407 0.756105 -0.340022 1 1 1
1.387015 0.664844 0.134568 1 1 1
1.307482 0.626721 -0.229646 1 1 1
1.387305 0.664983 0.188897 1 1 1
1.664766 0.797980 -0.226677 1 1 1
1.337764 0.641236 0.234965 63 63 63
1.661902 0.796607 -0.161238 1 1 1
1.573867 0.754408 0.339258 100 100 100
1.689378 0.809777 -0.098182 1 1 1
1.563988 0.749673 0.400413 100 100 100
1.702258 0.815951 -0.032950 1 1 1
1.581791 0.758207 0.470015 88 88 88
1.578307 0.756537 -0.468980 0 0 0
1.713078 0.821137 0.033160 1 1 1
1.606163 0.769889 -0.411211 1 1 1
1.629944 0.781288 0.094728 2 2 2
1.586259 0.760348 -0.341930 1 1 1
1.311044 0.628428 -0.230272 1 1 1
1.344343 0.644390 0.183048 1 1 1
1.654026 0.792831 -0.225215 1 1 1
1.339545 0.642090 0.235277 60 60 60
1.669089 0.800052 -0.161935 1 1 1
1.568555 0.751862 0.338114 100 100 100
1.682174 0.806324 -0.097764 1 1 1
1.571017 0.753043 0.402212 100 100 100
1.705865 0.817679 -0.033020 1 1 1
1.585275 0.759877 0.471051 84 84 84
1.597402 0.752361 -0.473121 0 0 0
1.729482 0.814570 0.033369 1 1 1
1.600789 0.753957 -0.408511 1 1 1
1.510549 0.711455 0.087506 1 1 1
1.594950 0.751207 -0.342693 2 2 2
1.368904 0.644741 -0.239658 1 1 1
1.391799 0.655525 0.188897 1 1 1
1.650405 0.777325 -0.223996 1 1 1
1.352820 0.637166 0.236842 65 65 65
1.660076 0.781881 -0.160541 1 1 1
1.571861 0.740332 0.337732 77 77 77
1.676782 0.789749 -0.097136 1 1 1
1.558477 0.734028 0.397713 100 100 100
1.707773 0.804345 -0.032950 1 1 1
1.588663 0.748246 0.470533 82 82 82
1.590411 0.749069 -0.471051 0 0 0
1.725863 0.812866 0.033299 1 1 1
1.593737 0.750635 -0.406712 1 1 1
1.362385 0.641671 0.078923 1 1 1
1.587846 0.747861 -0.341166 3 3 3
1.391508 0.655387 0.134568 1 1 1
1.347459 0.634641 -0.235903 1 1 1
1.391799 0.655525 0.188897 1 1 1
1.641425 0.773096 -0.222777 1 1 1
1.336736 0.629590 0.234026 61 61 61
1.656471 0.780183 -0.160192 1 1 1
1.573637 0.741168 0.338114 100 100 100
1.687623 0.794855 -0.097764 1 1 1
1.565529 0.737350 0.399513 100 100 100
1.696918 0.799233 -0.032741 1 1 1
1.593906 0.750715 0.472086 85 85 85
1.581447 0.731736 -0.466910 0 0 0
1.720467 0.796061 0.033090 1 1 1
1.620032 0.749590 -0.412110 1 1 1
1.366721 0.632383 0.078923 1 1 1
1.598245 0.739508 -0.342311 4 4 4
1.395937 0.645901 0.134568 1 1 1
1.444971 0.668589 -0.252172 1 1 1
1.396229 0.646036 0.188897 1 1 1
1.639443 0.758571 -0.221802 1 1 1
1.342784 0.621306 0.234339 62 62 62
1.668976 0.772236 -0.160890 1 1 1
1.571518 0.727142 0.336587 100 100 100
1.707495 0.790059 -0.098601 1 1 1
1.589966 0.735678 0.404462 100 100 100
1.691430 0.782625 -0.032531 1 1 1
1.598979 0.739848 0.472086 80 80 80
1.577940 0.730114 -0.465874 0 0 0
1.605884 0.743043 -0.408511 1 1 1
1.366721 0.632383 0.078923 1 1 1
1.601808 0.741157 -0.343075 4 4 4
1.373261 0.635408 -0.239658 1 1 1
1.396229 0.646036 0.188897 1 1 1
1.644848 0.761072 -0.222533 1 1 1
1.344576 0.622136 0.234652 61 61 61
1.661744 0.768889 -0.160192 1 1 1
1.566173 0.724669 0.335442 99 99 99
1.703870 0.788381 -0.098392 1 1 1
1.586429 0.734041 0.403562 100 100 100
1.695060 0.784305 -0.032601 1 1 1
1.598979 0.739848 0.472086 64 64 64
1.551339 0.704698 -0.456557 0 0 0
1.603935 0.728590 -0.406712 1 1 1
1.334734 0.606305 0.076829 1 1 1
1.603368 0.728333 -0.342311 4 4 4
1.400412 0.636139 0.134568 1 1 1
1.377663 0.625806 -0.239658 1 1 1
1.332025 0.605075 0.179635 1 1 1
1.648314 0.748749 -0.222290 1 1 1
1.354282 0.615185 0.235590 47 47 47
1.648931 0.749029 -0.158449 1 1 1
1.581919 0.718589 0.337732 74 74 74
1.694785 0.769859 -0.097554 1 1 1
1.595063 0.724560 0.404462 100 100 100
1.705956 0.774933 -0.032706 1 1 1
1.822208 0.827741 0.536273 64 64 64
1.475707 0.670342 -0.434298 1 1 1
1.385520 0.629375 0.026563 1 1 1
1.618129 0.735038 -0.410311 1 1 1
1.305639 0.593089 0.075154 1 1 1
1.610518 0.731581 -0.343838 4 4 4
1.431619 0.650315 -0.249044 1 1 1
1.342870 0.610001 0.181098 1 1 1
1.635662 0.743002 -0.220584 1 1 1
1.350685 0.613551 0.234965 32 32 32
1.667071 0.757270 -0.160192 1 1 1
1.614093 0.733204 0.344601 76 76 76
1.691148 0.768207 -0.097345 1 1 1
1.580869 0.718112 0.400863 100 100 100
1.593075 0.723657 -0.030542 1 1 1
1.894322 0.860499 0.557496 95 95 95
1.448591 0.645863 -0.424981 2 2 2
1.342394 0.598515 0.025655 1 1 1
1.612542 0.718962 -0.407611 1 1 1
1.375418 0.613239 0.078923 1 1 1
1.597655 0.712325 -0.340022 3 3 3
1.404819 0.626347 0.134568 1 1 1
1.381998 0.616173 -0.239658 1 1 1
1.405113 0.626478 0.188897 1 1 1
1.609988 0.717823 -0.216440 1 1 1
1.354936 0.604107 0.234965 17 17 17
1.694153 0.755349 -0.162284 1 1 1
1.624552 0.724317 0.345746 100 100 100
1.700118 0.758008 -0.097554 1 1 1
1.591184 0.709439 0.402212 88 88 88
1.324130 0.590372 -0.025306 1 1 1
1.891461 0.843320 0.554908 89 89 89
1.415067 0.630916 -0.415146 3 3 3
1.389880 0.619687 0.026563 1 1 1
1.612542 0.718962 -0.407611 2 2 2
1.375418 0.613239 0.078923 1 1 1
1.588690 0.708327 -0.338114 1 1 1
1.302915 0.580913 0.124807 1 1 1
1.454165 0.648349 -0.252172 1 1 1
1.368852 0.610311 0.184023 1 1 1
1.564661 0.697614 -0.210346 1 1 1
1.358544 0.605715 0.235590 11 11 11
1.657759 0.739122 -0.158798 1 1 1
1.626345 0.725116 0.346128 100 100 100
1.683701 0.750689 -0.096612 1 1 1
1.788747 0.797524 0.452152 80 80 80
1.287602 0.574086 -0.024608 1 1 1
1.880875 0.838600 0.551802 92 92 92
1.417667 0.620248 -0.414628 4 4 4
1.276923 0.558670 0.024329 1 1 1
1.624663 0.710811 -0.409411 1 1 1
1.379665 0.603621 0.078923 1 1 1
1.577408 0.690137 -0.334679 1 1 1
1.332493 0.582983 0.127247 1 1 1
1.440559 0.630263 -0.249044 1 1 1
1.409452 0.616654 0.188897 1 1 1
1.345800 0.588805 -0.180367 1 1 1
1.362740 0.596216 0.235590 1 1 1
1.681132 0.735517 -0.160541 1 1 1
1.611583 0.705088 0.341930 100 100 100
1.865685 0.816261 0.470148 84 84 84
1.328219 0.581113 -0.025306 1 1 1
1.883143 0.823900 0.550767 92 92 92
1.438906 0.629540 -0.420840 6 6 6
1.258602 0.550655 0.023980 1 1 1
1.615736 0.706906 -0.407161 2 2 2
1.379665 0.603621 0.078923 1 1 1
1.588200 0.694858 -0.336969 1 1 1
1.429700 0.625512 -0.247166 1 1 1
1.409452 0.616654 0.188897 1 1 1
1.293059 0.565730 -0.173298 1 1 1
1.373598 0.600967 0.237468 1 1 1
1.681132 0.735517 -0.160541 1 1 1
1.634965 0.715318 0.346891 81 81 81
1.280856 0.560391 -0.073270 1 1 1
1.869255 0.817823 0.471048 90 90 90
1.328219 0.581113 -0.025306 1 1 1
1.883143 0.823900 0.550767 92 92 92
1.457577 0.625320 -0.424981 5 5 5
1.280888 0.549519 0.024329 1 1 1
1.615381 0.693021 -0.405812 1 1 1
1.310530 0.562236 0.074736 1 1 1
1.607566 0.689668 -0.340022 2 2 2
1.463186 0.627727 -0.252172 1 1 1
1.413829 0.606552 0.188897 1 1 1
1.262412 0.541592 -0.168667 1 1 1
1.377863 0.591122 0.237468 1 1 1
1.668042 0.715613 -0.158798 1 1 1
1.845724 0.791841 0.390395 96 96 96
1.284834 0.551211 -0.073270 1 1 1
1.857151 0.796743 0.466548 90 90 90
1.284563 0.551095 -0.024398 1 1 1
1.888991 0.810403 0.550767 92 92 92
1.485982 0.637507 -0.433263 5 5 5
1.332344 0.571594 0.025306 1 1 1
1.611799 0.691484 -0.404912 1 1 1
1.292176 0.554361 0.073689 1 1 1
1.609370 0.690442 -0.340403 2 2 2
1.481339 0.635515 -0.255301 1 1 1
1.413829 0.606552 0.188897 1 1 1
1.266061 0.543158 -0.169155 1 1 1
1.396017 0.598911 0.240596 1 1 1
1.334800 0.572648 -0.127073 1 1 1
1.856549 0.796485 0.392685 93 93 93
1.284834 0.551211 -0.073270 1 1 1
1.866105 0.800585 0.468798 100 100 100
4.254312 1.825158 -0.080805 1 1 1
1.896092 0.813450 0.552837 92 92 92
1.497409 0.630376 -0.435334 5 5 5
1.402553 0.590443 0.026563 1 1 1
1.623653 0.683521 -0.406712 2 2 2
1.387959 0.584299 0.078923 1 1 1
1.621270 0.682518 -0.341930 3 3 3
1.431012 0.602424 -0.245915 1 1 1
1.388652 0.584591 0.184998 1 1 1
1.266070 0.532987 -0.168667 1 1 1
1.394599 0.587095 0.239658 6 6 6
1.276233 0.537265 -0.121146 1 1 1
1.861927 0.783830 0.392685 93 93 93
1.288556 0.542453 -0.073270 1 1 1
1.871511 0.787864 0.468798 100 100 100
4.220560 1.776761 -0.079932 1 1 1
1.887341 0.794528 0.548696 92 92 92
1.534800 0.646116 -0.446204 2 2 2
1.291971 0.543891 0.024468 1 1 1
1.625449 0.684277 -0.407161 2 2 2
1.387959 0.584299 0.078923 1 1 1
1.635746 0.688612 -0.344983 3 3 3
1.503837 0.633082 -0.258430 1 1 1
1.381333 0.581510 0.184023 1 1 1
1.273388 0.536068 -0.169642 1 1 1
1.394599 0.587095 0.239658 8 8 8
1.294596 0.544996 -0.122890 1 1 1
1.851071 0.779259 0.390395 96 96 96
1.288556 0.542453 -0.073270 1 1 1
1.875103 0.789376 0.469698 99 99 99
4.218717 1.775985 -0.079897 1 1 1
1.883780 0.793029 0.547661 96 96 96
1.598317 0.659431 -0.463286 1 1 1
1.295830 0.534632 0.024468 1 1 1
1.619495 0.668169 -0.404462 2 2 2
1.392104 0.574353 0.078923 1 1 1
1.647891 0.679885 -0.346509 3 3 3
1.398765 0.577101 -0.239658 1 1 1
1.429500 0.589781 0.189872 1 1 1
1.291872 0.532999 -0.171592 1 1 1
1.409721 0.581621 0.241535 10 10 10
1.287412 0.531159 -0.121844 1 1 1
1.849340 0.762998 0.388869 96 96 96
4.194776 1.730675 -0.237815 1 1 1
1.877101 0.774452 0.468798 100 100 100
4.235015 1.747277 -0.079967 1 1 1
1.892978 0.781003 0.548696 91 91 91
1.584030 0.653537 -0.459145 1 1 1
1.299527 0.536157 0.024538 1 1 1
1.606885 0.662967 -0.401313 2 2 2
1.392104 0.574353 0.078923 1 1 1
1.635187 0.674643 -0.343838 2 2 2
1.421862 0.586630 0.134568 1 1 1
1.508329 0.622304 -0.258430 1 1 1
1.488222 0.614008 0.197672 7 7 7
1.277191 0.526942 -0.169642 1 1 1
1.406069 0.580114 0.240909 10 10 10
1.280044 0.528119 -0.121146 1 1 1
1.849340 0.762998 0.388869 85 85 85
4.189237 1.728390 -0.237501 1 1 1
1.873498 0.772965 0.467898 99 99 99
4.225772 1.743464 -0.079792 1 1 1
1.900122 0.783950 0.550767 89 89 89
1.592136 0.643911 -0.460180 1 1 1
1.362560 0.551063 0.025655 1 1 1
1.627733 0.658308 -0.405362 2 2 2
1.303502 0.527178 0.073689 1 1 1
1.632577 0.660267 -0.342311 2 2 2
1.468686 0.593984 -0.250921 1 1 1
1.510875 0.611047 0.200109 12 12 12
1.251394 0.506104 -0.165742 1 1 1
1.406422 0.568803 0.240283 11 11 11
1.283700 0.519170 -0.121146 1 1 1
1.807301 0.730931 0.378947 66 66 66
4.197498 1.697604 -0.237291 1 1 1
1.871623 0.756945 0.466099 100 100 100
4.247110 1.717669 -0.079967 1 1 1
1.901967 0.769217 0.549732 92 92 92
1.592136 0.643911 -0.460180 1 1 1
1.318069 0.533070 0.024817 1 1 1
1.613281 0.652463 -0.401763 2 2 2
1.340533 0.542155 0.075782 1 1 1
1.614376 0.652906 -0.338495 2 2 2
1.425923 0.576689 0.134568 1 1 1
1.514555 0.612535 0.200597 7 7 7
1.247714 0.504616 -0.165255 1 1 1
1.402760 0.567321 0.239658 10 10 10
1.291088 0.522158 -0.121844 1 1 1
1.543395 0.624199 0.323612 34 34 34
4.188240 1.693860 -0.236768 1 1 1
1.875236 0.758406 0.466998 100 100 100
1.306946 0.528571 -0.024608 1 1 1
1.891221 0.764871 0.546626 87 87 87
1.593000 0.631357 -0.459145 1 1 1
1.347784 0.534170 0.025306 1 1 1
1.641348 0.650518 -0.407611 2 2 2
1.362853 0.540142 0.076829 1 1 1
1.640797 0.650300 -0.343075 2 2 2
1.578092 0.625448 0.148513 1 1 1
1.267119 0.502200 -0.215880 1 1 1
1.515104 0.600484 0.200109 7 7 7
1.277042 0.506133 -0.168667 1 1 1
1.417705 0.561881 0.241535 8 8 8
4.187871 1.659787 -0.394118 1 1 1
1.368852 0.542519 0.286213 49 49 49
4.218531 1.671938 -0.237815 1 1 1
1.884108 0.746732 0.467898 94 94 94
1.347784 0.534170 -0.025306 1 1 1
1.885739 0.747378 0.543520 85 85 85
1.600184 0.634204 -0.461216 1 1 1
1.347784 0.534170 0.025306 1 1 1
1.615985 0.640466 -0.401313 2 2 2
1.355426 0.537198 0.076410 1 1 1
1.596993 0.632939 -0.333916 1 1 1
1.611432 0.638662 0.151651 4 4 4
1.267119 0.502200 -0.215880 1 1 1
1.515104 0.600484 0.200109 7 7 7
1.254897 0.497356 -0.165742 1 1 1
1.421377 0.563337 0.242161 8 8 8
4.180462 1.656850 -0.393421 1 1 1
1.350600 0.535286 0.282397 63 63 63
1.277442 0.506291 -0.072014 1 1 1
1.878673 0.744578 0.466548 100 100 100
1.347784 0.534170 -0.025306 1 1 1
1.900107 0.753073 0.547661 89 89 89
1.606374 0.623716 -0.461733 0 0 0
1.325383 0.514614 0.024817 1 1 1
1.622233 0.629874 -0.401763 2 2 2
1.359143 0.527723 0.076410 1 1 1
1.330512 0.516606 -0.277436 1 1 1
1.641854 0.637492 0.154091 6 6 6
1.237449 0.480472 -0.210248 1 1 1
1.510006 0.586299 0.198891 9 9 9
4.104405 1.593642 -0.540612 1 1 1
1.440007 0.559120 0.244664 8 8 8
4.229073 1.642048 -0.396907 1 1 1
1.367115 0.530818 0.285069 67 67 67
1.288393 0.500252 -0.072433 1 1 1
1.878375 0.729328 0.465199 100 100 100
1.351481 0.524748 -0.025306 1 1 1
1.894512 0.735594 0.544555 92 92 92
1.615378 0.627213 -0.464321 1 1 1
1.347752 0.523300 0.025236 1 1 1
1.636766 0.635517 -0.405362 2 2 2
1.655176 0.642665 0.093053 1 1 1
1.228025 0.476813 -0.256066 1 1 1
1.638139 0.636050 0.153743 5 5 5
1.255863 0.487622 -0.213377 1 1 1
1.519259 0.589892 0.200109 7 7 7
4.108106 1.595079 -0.541100 1 1 1
1.427117 0.554115 0.242473 10 10 10
1.261107 0.489658 -0.118357 1 1 1
1.367115 0.530818 0.285069 70 70 70
1.333077 0.517602 -0.074945 1 1 1
1.867476 0.725096 0.462499 99 99 99
1.303014 0.505929 -0.024398 1 1 1
1.905318 0.739789 0.547661 89 89 89
1.608883 0.611800 -0.461216 1 1 1
1.373802 0.522407 0.025655 1 1 1
1.612019 0.612993 -0.398163 1 1 1
1.775366 0.675108 0.099543 4 4 4
1.205633 0.458458 -0.250723 1 1 1
1.636953 0.622474 0.153220 6 6 6
1.292472 0.491480 -0.219008 1 1 1
1.541895 0.586327 0.202547 9 9 9
4.128419 1.569888 -0.542319 1 1 1
1.436490 0.546245 0.243412 8 8 8
1.257046 0.478009 -0.117660 1 1 1
1.374458 0.522657 0.285832 71 71 71
1.306789 0.496925 -0.073270 1 1 1
1.883421 0.716197 0.465199 100 100 100
1.317729 0.501085 -0.024608 1 1 1
1.895990 0.720977 0.543520 89 89 89
1.603466 0.609740 -0.459663 1 1 1
1.328943 0.505349 0.024817 1 1 1
1.384333 0.526412 -0.341926 1 1 1
1.779100 0.676527 0.099752 5 5 5
1.260684 0.479393 -0.262172 1 1 1
1.635090 0.621766 0.153045 6 6 6
4.078671 1.550971 -0.691127 1 1 1
1.534473 0.583505 0.201572 9 9 9
4.120997 1.567066 -0.541344 1 1 1
1.440183 0.547649 0.244038 8 8 8
1.268219 0.482258 -0.118706 1 1 1
1.363447 0.518470 0.283542 74 74 74
1.306789 0.496925 -0.073270 1 1 1
1.883421 0.716197 0.465199 100 100 100
1.310252 0.498242 -0.024468 1 1 1
1.892379 0.719603 0.542485 94 94 94
1.613010 0.600835 -0.461216 1 1 1
1.377326 0.513044 0.025655 1 1 1
1.249096 0.465279 -0.307733 1 1 1
1.785535 0.665099 0.099857 4 4 4
1.337509 0.498212 -0.277436 1 1 1
1.650487 0.614795 0.154091 6 6 6
4.068771 1.515588 -0.687686 1 1 1
1.530968 0.570275 0.200597 7 7 7
4.137149 1.541058 -0.542075 1 1 1
1.451281 0.540592 0.245289 8 8 8
1.256536 0.468051 -0.117312 1 1 1
1.363265 0.507807 0.282779 71 71 71
1.310141 0.488018 -0.073270 1 1 1
1.888253 0.703361 0.465199 100 100 100
1.358587 0.506064 -0.025306 1 1 1
1.904474 0.709403 0.544555 89 89 89
1.585855 0.590720 -0.453451 0 0 0
1.665909 0.620539 0.031030 1 1 1
1.227182 0.457116 -0.302334 1 1 1
1.761204 0.656036 0.098496 3 3 3
1.274957 0.474912 -0.264461 1 1 1
1.665424 0.620358 0.155486 6 6 6
4.081729 1.520415 -0.689876 1 1 1
1.542130 0.574432 0.202059 7 7 7
1.261235 0.469801 -0.165255 1 1 1
1.454984 0.541971 0.245915 8 8 8
1.305080 0.486133 -0.121844 1 1 1
1.363265 0.507807 0.282779 71 71 71
