2.096537 0.534790 -0.037767 10 10 10
2.192008 0.559143 0.606154 1 1 1
1.925830 0.476951 -0.531614 2 2 2
5.896920 1.460433 0.106041 2 2 2
2.056161 0.509229 -0.489044 1 1 1
2.103872 0.521045 -0.421306 1 1 1
1.723786 0.426913 -0.281269 1 1 1
2.358499 0.584106 0.298336 1 1 1
1.969270 0.487710 -0.249101 11 11 11
2.320112 0.574599 0.378571 1 1 1
2.028726 0.502435 -0.182853 12 12 12
2.258232 0.559274 0.452217 1 1 1
2.051132 0.507984 -0.110743 9 9 9
2.243429 0.555608 0.533584 1 1 1
2.192108 0.542898 0.605119 1 1 1
1.905202 0.471843 -0.525920 4 4 4
2.059944 0.510166 -0.489943 1 1 1
2.096249 0.519158 -0.419780 1 1 1
1.679684 0.415991 -0.274073 1 1 1
2.316108 0.573608 0.292974 1 1 1
1.973124 0.488664 -0.249588 10 10 10
2.274093 0.563202 0.371063 1 1 1
2.036462 0.504351 -0.183550 6 6 6
2.277289 0.563994 0.456033 1 1 1
2.076335 0.514226 -0.112104 12 12 12
2.213163 0.548112 0.526385 1 1 1
2.188357 0.541969 0.604084 1 1 1
1.857811 0.446021 -0.511944 4 4 4
2.071122 0.497232 -0.491743 1 1 1
2.099910 0.504144 -0.419780 1 1 1
6.154928 1.477667 0.553788 2 2 2
1.663410 0.399349 -0.270944 1 1 1
2.339456 0.561654 0.295411 1 1 1
1.995872 0.479167 -0.252026 9 9 9
2.281907 0.547837 0.371688 1 1 1
2.034206 0.488370 -0.183027 6 6 6
2.246904 0.539434 0.449164 1 1 1
2.076078 0.498422 -0.111894 10 10 10
2.228398 0.534991 0.529085 1 1 1
2.188423 0.525394 0.603048 1 1 1
1.792065 0.430237 -0.493827 7 7 7
1.796666 0.431341 0.032252 1 1 1
2.090071 0.501782 -0.496242 1 1 1
2.126637 0.510560 -0.425122 1 1 1
1.667252 0.400272 -0.271570 1 1 1
2.366479 0.568141 0.298824 1 1 1
1.990082 0.477776 -0.251295 8 8 8
2.289590 0.549682 0.372940 1 1 1
2.018708 0.484649 -0.181633 11 11 11
2.262176 0.543100 0.452217 1 1 1
2.076078 0.498422 -0.111894 7 7 7
2.224608 0.534081 0.528185 1 1 1
2.214721 0.531708 0.610295 1 1 1
1.796906 0.418153 -0.494344 4 4 4
1.791843 0.416975 0.032112 1 1 1
2.085931 0.485411 -0.494442 1 1 1
2.431603 0.565852 0.130840 1 1 1
2.133973 0.496591 -0.425886 1 1 1
1.685397 0.392204 -0.274073 1 1 1
2.323985 0.540808 0.292974 1 1 1
2.308763 0.537266 0.375443 1 1 1
2.037566 0.474157 -0.183027 12 12 12
2.246791 0.522845 0.448401 1 1 1
2.079507 0.483916 -0.111894 9 9 9
2.220690 0.516771 0.526385 1 1 1
5.925086 1.378811 1.630042 0 0 0
1.810077 0.421218 -0.497968 1 1 1
2.080237 0.484086 -0.493093 1 1 1
2.435493 0.566757 0.131049 1 1 1
2.130149 0.495701 -0.425122 1 1 1
2.287896 0.532410 0.205513 1 1 1
1.679625 0.390861 -0.273135 1 1 1
2.312385 0.538109 0.291511 1 1 1
1.919898 0.446774 -0.242033 2 2 2
2.285676 0.531893 0.371688 1 1 1
2.060853 0.479575 -0.185119 9 9 9
2.250615 0.523735 0.449164 1 1 1
2.095069 0.487538 -0.112732 12 12 12
2.220690 0.516771 0.526385 1 1 1
5.966481 1.388444 1.641430 0 0 0
1.818627 0.409845 -0.499521 1 1 1
2.098774 0.472979 -0.496692 1 1 1
2.419907 0.545350 0.130003 1 1 1
2.125897 0.479092 -0.423596 1 1 1
6.174959 1.391587 0.553788 2 2 2
1.693875 0.381731 -0.275012 1 1 1
2.304466 0.519334 0.290049 1 1 1
1.924907 0.433797 -0.242276 2 2 2
2.266209 0.510712 0.367934 1 1 1
2.052489 0.462548 -0.184073 5 5 5
2.261878 0.509736 0.450691 1 1 1
2.094525 0.472022 -0.112522 10 10 10
2.193827 0.494400 0.519187 1 1 1
6.013720 1.355250 1.651783 0 0 0
1.799782 0.405598 -0.494344 1 1 1
2.113982 0.476407 -0.500291 1 1 1
2.408216 0.542715 0.129374 1 1 1
2.129727 0.479955 -0.424359 1 1 1
1.863456 0.419948 -0.302544 1 1 1
2.319958 0.522825 0.291999 1 1 1
1.907478 0.429869 -0.240083 3 3 3
2.250792 0.507238 0.365431 1 1 1
2.052489 0.462548 -0.184073 9 9 9
2.231234 0.502830 0.444585 1 1 1
2.100370 0.473339 -0.112836 2 2 2
2.212838 0.498685 0.523686 1 1 1
6.058950 1.365443 1.664206 0 0 0
1.795019 0.391377 -0.492274 1 1 1
2.132489 0.464958 -0.503890 1 1 1
2.411947 0.525889 0.129374 1 1 1
2.148372 0.468421 -0.427412 1 1 1
2.177077 0.474680 -0.352916 1 1 1
2.304156 0.502387 0.289562 1 1 1
1.914312 0.417387 -0.240570 3 3 3
2.258139 0.492354 0.366057 1 1 1
2.055668 0.448208 -0.184073 10 10 10
2.257708 0.492260 0.449164 1 1 1
2.235305 0.487375 0.528185 1 1 1
2.919973 0.636657 0.800786 1 1 1
1.832769 0.399608 -0.502627 3 3 3
2.117257 0.461637 -0.500291 1 1 1
2.419752 0.527591 0.129793 1 1 1
2.152208 0.469257 -0.428175 1 1 1
2.411906 0.525881 0.215972 1 1 1
2.213748 0.482675 -0.358861 1 1 1
2.242092 0.488855 0.281762 1 1 1
1.914312 0.417387 -0.240570 3 3 3
2.242698 0.488987 0.363554 1 1 1
2.061508 0.449481 -0.184596 6 6 6
2.246199 0.489751 0.446875 1 1 1
2.231497 0.486545 0.527285 1 1 1
1.817028 0.396176 -0.032461 1 1 1
2.957724 0.644888 0.811139 4 4 4
1.841118 0.388320 -0.504179 11 11 11
2.139418 0.451236 -0.504790 1 1 1
2.384202 0.502865 0.127700 1 1 1
2.178404 0.459459 -0.432755 1 1 1
2.372541 0.500405 0.212137 1 1 1
2.226646 0.469634 -0.360425 1 1 1
2.113287 0.445725 0.265188 1 1 1
1.897685 0.400251 -0.238133 3 3 3
2.234378 0.471265 0.361676 1 1 1
2.048924 0.432149 -0.183201 2 2 2
2.249481 0.474450 0.446875 1 1 1
2.188994 0.461693 0.516488 1 1 1
1.811856 0.382148 -0.032322 1 1 1
1.848679 0.389915 -0.506250 12 12 12
2.277538 0.480368 0.040629 1 1 1
2.148952 0.453247 -0.507040 1 1 1
2.388111 0.503689 0.127909 1 1 1
2.166878 0.457028 -0.430465 1 1 1
2.356945 0.497116 0.210743 1 1 1
2.234378 0.471265 -0.361676 1 1 1
2.058901 0.434254 0.258363 1 1 1
1.911281 0.403119 -0.239839 3 3 3
2.207318 0.465557 0.357296 1 1 1
2.011883 0.424337 -0.179889 2 2 2
2.241797 0.472829 0.445348 1 1 1
1.792289 0.378021 -0.031973 1 1 1
2.952593 0.622747 0.808551 61 61 61
1.836277 0.373595 -0.502109 14 14 14
2.210373 0.449706 0.039373 1 1 1
2.150231 0.437469 -0.506590 1 1 1
2.395568 0.487384 0.128118 1 1 1
2.173941 0.442293 -0.431228 1 1 1
2.356537 0.479443 0.210394 1 1 1
2.241564 0.456051 -0.362302 1 1 1
2.069736 0.421093 0.259338 1 1 1
1.904391 0.387453 -0.238620 5 5 5
2.229950 0.453688 0.360425 1 1 1
1.993392 0.405560 -0.177972 3 3 3
2.229732 0.453644 0.442295 1 1 1
2.970226 0.604299 0.812174 63 63 63
1.845742 0.375521 -0.504697 13 13 13
2.280917 0.464058 0.040629 1 1 1
2.148321 0.437081 -0.506140 1 1 1
2.395568 0.487384 0.128118 1 1 1
2.204722 0.448556 -0.437334 1 1 1
2.309679 0.469910 0.206210 1 1 1
2.229950 0.453688 -0.360425 1 1 1
2.069736 0.421093 0.259338 1 1 1
1.912172 0.389036 -0.239595 3 3 3
2.226078 0.452901 0.359799 1 1 1
1.989487 0.404766 -0.177623 3 3 3
2.229732 0.453644 0.442295 1 1 1
2.977798 0.605840 0.814245 63 63 63
1.867276 0.366345 -0.509874 10 10 10
2.180100 0.427719 0.038779 1 1 1
2.158969 0.423573 -0.507939 1 1 1
2.375394 0.466034 0.126862 1 1 1
2.213580 0.434287 -0.438479 1 1 1
2.348096 0.460678 0.209348 1 1 1
2.244693 0.440391 -0.362302 1 1 1
2.084313 0.408926 0.260800 1 1 1
1.879778 0.368798 -0.235208 1 1 1
2.252447 0.441913 0.363554 1 1 1
1.974668 0.387415 -0.176055 1 1 1
2.217433 0.435043 0.439242 1 1 1
2.997120 0.588012 0.818386 66 66 66
1.895712 0.371924 -0.517638 11 11 11
2.201685 0.431953 0.039163 1 1 1
2.153232 0.422447 -0.506590 1 1 1
2.391073 0.469110 0.127700 1 1 1
2.213580 0.434287 -0.438479 1 1 1
2.344185 0.459911 0.208999 1 1 1
2.273770 0.446096 -0.366995 1 1 1
2.072626 0.406633 0.259338 1 1 1
1.759005 0.345103 -0.220096 1 1 1
2.236940 0.438870 0.361051 1 1 1
1.843675 0.361715 -0.164376 1 1 1
2.232845 0.438067 0.442295 1 1 1
2.983164 0.585273 0.701847 1 1 1
2.205610 0.432723 -0.039233 1 1 1
3.012286 0.590987 0.822527 63 63 63
1.911550 0.361191 -0.521262 11 11 11
2.216437 0.418800 0.039373 2 2 2
2.161874 0.408490 -0.507939 1 1 1
2.351114 0.444248 0.125397 1 1 1
2.201125 0.415907 -0.435426 1 1 1
2.347339 0.443534 0.208999 1 1 1
2.263241 0.427644 -0.364805 1 1 1
2.071513 0.391416 0.258850 1 1 1
1.761371 0.332815 -0.220096 1 1 1
2.232185 0.421776 0.359799 1 1 1
1.795254 0.339217 -0.159844 1 1 1
2.220416 0.419552 0.439242 1 1 1
1.821230 0.344125 -0.097136 1 1 1
2.956539 0.558644 0.694649 1 1 1
2.175173 0.411003 -0.038640 1 1 1
3.023932 0.571378 0.824597 68 68 68
1.921041 0.362985 -0.523850 10 10 10
2.255735 0.426226 0.040071 1 1 1
2.179107 0.411747 -0.511989 1 1 1
2.366814 0.447214 0.126234 1 1 1
2.189550 0.413720 -0.433136 1 1 1
2.316015 0.437616 0.206210 1 1 1
2.274888 0.429844 -0.366682 1 1 1
2.145635 0.405422 0.268113 1 1 1
1.765272 0.333552 -0.220584 1 1 1
2.205011 0.416641 0.355419 1 1 1
1.814832 0.342916 -0.161587 1 1 1
2.218487 0.419187 0.438861 1 1 1
1.797680 0.339675 -0.095879 2 2 2
2.198753 0.415459 -0.039058 7 7 7
3.025830 0.571736 0.825115 76 76 76
1.925368 0.350246 -0.524367 9 9 9
2.168438 0.394463 -0.508839 2 2 2
2.361943 0.429664 0.125816 1 1 1
2.201973 0.400563 -0.435045 3 3 3
2.326781 0.423267 0.206908 1 1 1
2.266100 0.412229 -0.364805 1 1 1
2.117096 0.385123 0.264213 1 1 1
1.753830 0.319041 -0.218877 1 1 1
2.235004 0.406572 0.359799 1 1 1
1.848487 0.336260 -0.164376 1 1 1
2.234809 0.406537 0.441532 1 1 1
1.788160 0.325286 -0.095251 1 1 1
2.973694 0.540948 0.697798 67 67 67
2.195627 0.399409 -0.038954 10 10 10
3.046757 0.554239 0.829774 69 69 69
1.940573 0.353012 -0.528508 13 13 13
2.133928 0.388185 -0.500741 3 3 3
2.369803 0.431094 0.126234 1 1 1
2.184589 0.397401 -0.431610 3 3 3
2.346383 0.426833 0.208651 1 1 1
2.264156 0.411875 -0.364492 1 1 1
2.167875 0.394361 0.270550 1 1 1
1.781173 0.324015 -0.222290 1 1 1
2.238891 0.407279 0.360425 1 1 1
1.773999 0.322710 -0.157752 1 1 1
2.979446 0.541994 0.699148 60 60 60
2.207432 0.401556 -0.039163 11 11 11
3.050559 0.554930 0.830809 68 68 68
1.952506 0.341118 -0.531097 16 16 16
2.109710 0.368583 -0.494442 3 3 3
2.325536 0.406289 0.123722 1 1 1
2.193112 0.383154 -0.432755 4 4 4
2.337530 0.408385 0.207605 1 1 1
2.278652 0.398098 -0.366370 1 1 1
2.217507 0.387416 0.276400 1 1 1
1.775570 0.310206 -0.221315 1 1 1
2.222221 0.388239 0.357296 1 1 1
1.766395 0.308603 -0.156880 9 9 9
2.990836 0.522522 0.700947 62 62 62
2.214121 0.386824 -0.039233 12 12 12
3.065777 0.535615 0.833915 65 65 65
1.958215 0.342115 -0.532650 19 19 19
2.050201 0.358186 -0.480495 3 3 3
2.248805 0.392884 0.119640 3 3 3
2.177640 0.380451 -0.429702 4 4 4
2.321829 0.405642 0.206210 1 1 1
2.290327 0.400138 -0.368247 1 1 1
2.237062 0.390832 0.278837 1 1 1
1.845967 0.322505 -0.230089 1 1 1
2.210545 0.386200 0.355419 1 1 1
1.772283 0.309632 -0.157403 18 18 18
2.996595 0.523528 0.702297 65 65 65
2.198362 0.384071 -0.038954 12 12 12
3.077195 0.537610 0.837021 63 63 63
1.951029 0.326840 -0.530061 16 16 16
2.019978 0.338391 -0.472847 4 4 4
2.263312 0.379155 0.120268 4 4 4
2.141518 0.358751 -0.422069 7 7 7
2.293164 0.384155 0.203422 1 1 1
2.279428 0.381854 -0.366057 1 1 1
2.259314 0.378485 0.281274 1 1 1
2.232670 0.374021 0.358548 1 1 1
1.758682 0.294618 -0.156009 7 7 7
3.015552 0.505171 0.705896 62 62 62
2.200990 0.368714 -0.038954 9 9 9
3.078968 0.515795 0.836503 31 31 31
1.952934 0.327160 -0.530579 14 14 14
2.295656 0.384573 0.040629 1 1 1
2.019978 0.338391 -0.472847 5 5 5
2.271191 0.380475 0.120687 1 1 1
2.127964 0.356481 -0.419398 9 9 9
2.253864 0.377572 0.199935 1 1 1
2.285272 0.382833 -0.366995 1 1 1
2.259314 0.378485 0.281274 1 1 1
1.773777 0.297147 -0.220827 2 2 2
2.213188 0.370758 0.355419 1 1 1
1.776367 0.297581 -0.157578 3 3 3
2.064361 0.345826 -0.109696 1 1 1
3.027084 0.507103 0.708596 63 63 63
2.214795 0.371027 -0.039198 4 4 4
3.092305 0.518029 0.840127 27 27 27
1.953318 0.312871 -0.530061 13 13 13
2.298349 0.368136 0.040629 1 1 1
1.997333 0.319921 -0.466998 4 4 4
2.271884 0.363897 0.120582 1 1 1
2.136276 0.342176 -0.420543 8 8 8
2.284050 0.365846 0.202376 1 1 1
2.311359 0.370220 -0.370750 1 1 1
2.250203 0.360424 0.279812 1 1 1
1.769977 0.283504 -0.220096 1 1 1
2.217735 0.355224 0.355732 1 1 1
1.800091 0.288328 -0.159495 7 7 7
2.855476 0.457373 0.562123 1 1 1
2.092421 0.335151 -0.111057 2 2 2
3.046029 0.487895 0.712195 65 65 65
2.237139 0.358332 -0.039547 3 3 3
3.099748 0.496499 0.841162 20 20 20
1.964763 0.314704 -0.533167 8 8 8
2.298349 0.368136 0.040629 1 1 1
1.985788 0.318072 -0.464299 2 2 2
2.252162 0.360738 0.119535 1 1 1
2.122706 0.340002 -0.417872 8 8 8
2.295854 0.367736 0.203422 1 1 1
2.301607 0.368658 -0.369185 1 1 1
2.238443 0.358540 0.278350 1 1 1
1.787618 0.286330 -0.222290 1 1 1
2.200180 0.352412 0.352916 1 1 1
1.811895 0.290219 -0.160541 6 6 6
2.855476 0.457373 0.562123 9 9 9
2.078616 0.332940 -0.110324 4 4 4
3.042181 0.487278 0.711295 63 63 63
2.235164 0.358015 -0.039512 1 1 1
3.055874 0.489472 0.829256 9 9 9
1.968769 0.301616 -0.533685 8 8 8
2.312662 0.354300 0.040839 1 1 1
1.985980 0.304252 -0.463849 3 3 3
2.262463 0.346610 0.119954 1 1 1
2.111387 0.323465 -0.415200 9 9 9
2.274671 0.348480 0.201330 1 1 1
2.337257 0.358068 -0.374504 1 1 1
2.248680 0.344498 0.279325 1 1 1
1.773828 0.271751 -0.220340 1 1 1
1.815798 0.278180 -0.160715 1 1 1
2.872107 0.440007 0.564795 11 11 11
2.053195 0.314550 -0.108859 6 6 6
3.053132 0.467740 0.713095 66 66 66
2.273129 0.348244 -0.040141 1 1 1
3.143156 0.481532 0.852032 12 12 12
1.957312 0.299860 -0.530579 9 9 9
2.286965 0.350363 0.040385 6 6 6
2.012948 0.308384 -0.470148 2 2 2
2.313792 0.354473 0.122675 1 1 1
2.107506 0.322870 -0.414437 9 9 9
2.239222 0.343049 0.198192 1 1 1
2.309921 0.353880 -0.370124 1 1 1
2.240831 0.343296 0.278350 1 1 1
1.852316 0.283775 -0.230089 1 1 1
1.857156 0.284516 -0.164376 1 1 1
2.877929 0.440899 0.565939 11 11 11
2.059117 0.315457 -0.109173 9 9 9
3.060837 0.468921 0.714894 63 63 63
2.221736 0.340370 -0.039233 1 1 1
3.150795 0.482702 0.854103 55 55 55
1.957446 0.285909 -0.530061 9 9 9
2.277483 0.332655 0.040175 8 8 8
2.007339 0.293197 -0.468348 5 5 5
2.316211 0.338311 0.122675 1 1 1
2.105823 0.307582 -0.413674 9 9 9
2.261277 0.330288 0.199935 1 1 1
2.251030 0.328791 0.279325 1 1 1
1.759968 0.257065 -0.218390 1 1 1
1.859097 0.271544 -0.164376 1 1 1
2.878994 0.420513 0.565558 9 9 9
2.059293 0.300785 -0.109068 10 10 10
3.085247 0.450639 0.719843 60 60 60
3.148353 0.459856 0.852550 58 58 58
1.978473 0.288981 -0.535755 7 7 7
2.273526 0.332077 0.040106 9 9 9
2.013124 0.294042 -0.469698 3 3 3
2.328068 0.340043 0.123304 1 1 1
2.117479 0.309284 -0.415964 10 10 10
2.249448 0.328560 0.198889 1 1 1
2.211745 0.323053 0.274450 1 1 1
1.758004 0.256778 -0.218146 12 12 12
1.809810 0.264345 -0.160018 3 3 3
2.886765 0.421648 0.567084 9 9 9
2.045459 0.298765 -0.108335 12 12 12
3.096817 0.452329 0.722543 61 61 61
3.186584 0.465440 0.862903 79 79 79
1.982260 0.276119 -0.536273 9 9 9
2.265776 0.315612 0.039931 4 4 4
2.013100 0.280415 -0.469248 6 6 6
2.302578 0.320738 0.121838 1 1 1
2.111706 0.294150 -0.414437 11 11 11
2.235791 0.311435 0.197495 1 1 1
1.798011 0.250454 -0.287527 1 1 1
2.221704 0.309473 0.275425 1 1 1
1.755736 0.244566 -0.217659 27 27 27
2.901165 0.404118 0.569374 9 9 9
2.033548 0.283264 -0.107603 10 10 10
3.093958 0.430974 0.721193 52 52 52
2.226164 0.310094 -0.039233 1 1 1
3.201081 0.445895 0.866009 75 75 75
1.986086 0.276652 -0.537308 9 9 9
2.275678 0.316991 0.040106 1 1 1
2.030470 0.282835 -0.473297 3 3 3
2.263015 0.315227 0.119745 1 1 1
2.094205 0.291713 -0.411003 9 9 9
2.243684 0.312534 0.198192 1 1 1
1.848880 0.257540 -0.295661 1 1 1
2.229568 0.310568 0.276400 1 1 1
1.767533 0.246209 -0.219121 4 4 4
2.856471 0.397893 0.456789 1 1 1
1.801657 0.250962 -0.159146 8 8 8
2.924499 0.407369 0.573953 10 10 10
2.043439 0.284641 -0.108126 12 12 12
3.095888 0.431242 0.721643 16 16 16
2.135058 0.297403 -0.037627 1 1 1
3.216389 0.448027 0.870150 74 74 74
1.989976 0.262339 -0.537826 3 3 3
2.268028 0.298994 0.039931 1 1 1
2.053741 0.270745 -0.478246 8 8 8
2.296947 0.302807 0.121419 1 1 1
2.084609 0.274814 -0.408713 9 9 9
2.230112 0.293996 0.196798 1 1 1
2.221945 0.292919 0.275181 1 1 1
1.804715 0.237916 -0.223508 2 2 2
2.826017 0.372554 0.451470 3 3 3
2.931299 0.386433 0.574717 10 10 10
2.043491 0.269394 -0.108021 12 12 12
3.120219 0.411339 0.726592 12 12 12
2.113390 0.278608 -0.037209 1 1 1
3.219586 0.424438 0.870150 77 77 77
1.986146 0.261834 -0.536791 1 1 1
2.266046 0.298733 0.039896 3 3 3
2.038285 0.268707 -0.474647 1 1 1
2.296947 0.302807 0.121419 1 1 1
2.094341 0.276097 -0.410621 8 8 8
2.238014 0.295037 0.197495 1 1 1
1.799799 0.237268 -0.287527 1 1 1
1.889342 0.249072 -0.233989 1 1 1
2.833851 0.373587 0.452721 8 8 8
1.898262 0.250248 -0.167513 1 1 1
2.933245 0.386690 0.575098 9 9 9
2.041511 0.269132 -0.107917 13 13 13
3.135675 0.413376 0.730191 15 15 15
2.204587 0.290631 -0.038814 1 1 1
3.227247 0.425448 0.872220 75 75 75
1.993676 0.248679 -0.538344 1 1 1
2.287919 0.285381 0.040245 3 3 3
2.084588 0.260019 -0.484994 1 1 1
2.275222 0.283797 0.120163 1 1 1
2.090373 0.260740 -0.409476 5 5 5
2.222225 0.277187 0.195926 1 1 1
2.861873 0.356972 0.456789 13 13 13
1.971137 0.245868 -0.173789 1 1 1
2.951459 0.368147 0.578151 12 12 12
2.037394 0.254132 -0.107603 12 12 12
3.049532 0.380380 0.709496 11 11 11
2.218468 0.276718 -0.039024 1 1 1
3.245475 0.404821 0.876361 79 79 79
2.001344 0.249635 -0.540414 1 1 1
2.285935 0.285133 0.040210 2 2 2
2.045913 0.255195 -0.475996 1 1 1
2.251439 0.280831 0.118907 1 1 1
2.074788 0.258796 -0.406423 1 1 1
2.226179 0.277680 0.196275 1 1 1
2.857952 0.356483 0.456163 11 11 11
2.402138 0.299628 -0.211788 1 1 1
2.945614 0.367418 0.577006 10 10 10
2.031448 0.253390 -0.107289 10 10 10
3.128816 0.390269 0.727942 5 5 5
2.260139 0.281916 -0.039757 4 4 4
3.264645 0.407212 0.881538 75 75 75
1.987648 0.234198 -0.536273 3 3 3
2.303710 0.271439 0.040490 1 1 1
2.035990 0.239894 -0.473297 2 2 2
2.257266 0.265967 0.119117 1 1 1
2.235933 0.263453 0.196972 1 1 1
3.024211 0.356333 0.373895 1 1 1
1.799938 0.212081 -0.222533 2 2 2
2.854427 0.336328 0.455224 10 10 10
2.417973 0.284902 -0.213009 1 1 1
2.967545 0.349657 0.580823 10 10 10
2.041060 0.240492 -0.107707 11 11 11
2.228244 0.262547 -0.039163 7 7 7
3.278852 0.386337 0.884643 79 79 79
1.997241 0.235329 -0.538861 3 3 3
2.311654 0.272375 0.040629 1 1 1
2.057279 0.242403 -0.478246 2 2 2
2.269167 0.267369 0.119745 1 1 1
2.206252 0.259956 0.194357 1 1 1
1.838212 0.216591 -0.293158 1 1 1
3.024211 0.356333 0.373895 1 1 1
1.786138 0.210455 -0.220827 10 10 10
2.858351 0.336791 0.455850 10 10 10
2.384335 0.280939 -0.210045 1 1 1
2.979243 0.351035 0.583112 11 11 11
2.058912 0.242595 -0.108649 9 9 9
3.208814 0.378085 0.745938 58 58 58
2.252075 0.265355 -0.039582 9 9 9
3.282690 0.386789 0.885679 79 79 79
1.993037 0.221090 -0.537308 2 2 2
2.275692 0.252445 0.039966 1 1 1
2.070503 0.229683 -0.480945 2 2 2
2.247113 0.249275 0.118489 1 1 1
2.225793 0.246909 0.195926 1 1 1
1.808230 0.200589 -0.288152 1 1 1
2.967377 0.329174 0.366583 1 1 1
1.811205 0.200919 -0.223752 6 6 6
2.882174 0.319723 0.459292 10 10 10
2.394113 0.265581 -0.210743 1 1 1
2.979612 0.330531 0.582731 12 12 12
2.060516 0.228575 -0.108649 7 7 7
3.215187 0.356664 0.746838 55 55 55
2.273705 0.252224 -0.039931 9 9 9
3.304447 0.366566 0.890855 83 83 83
2.027598 0.224924 -0.546626 1 1 1
2.277680 0.252665 0.040001 1 1 1
2.066629 0.229253 -0.480046 2 2 2
2.231233 0.247513 0.117651 1 1 1
2.198069 0.243834 0.193486 2 2 2
1.820010 0.201896 -0.290029 1 1 1
2.895917 0.321247 0.461482 11 11 11
2.384212 0.264483 -0.209871 1 1 1
2.991320 0.331830 0.585020 14 14 14
2.064486 0.229016 -0.108859 6 6 6
3.226808 0.357953 0.749537 53 53 53
2.275692 0.252445 -0.039966 12 12 12
3.315968 0.367844 0.893961 84 84 84
2.038763 0.211405 -0.549214 3 3 3
2.275451 0.235948 0.039931 1 1 1
2.060463 0.213655 -0.478246 2 2 2
2.228974 0.231128 0.117442 1 1 1
2.281010 0.236524 0.200633 1 1 1
1.843022 0.191108 -0.293471 3 3 3
2.426667 0.251628 -0.299555 1 1 1
2.906001 0.301331 0.462733 12 12 12
2.372171 0.245977 -0.208651 1 1 1
3.009240 0.312036 0.588073 27 27 27
2.076005 0.215267 -0.109382 3 3 3
3.238978 0.335859 0.751786 58 58 58
2.283407 0.236773 -0.040071 12 12 12
3.333887 0.345700 0.898102 87 87 87
2.038763 0.211405 -0.549214 4 4 4
2.279429 0.236360 0.040001 1 1 1
2.089538 0.216670 -0.484994 1 1 1
2.232947 0.231540 0.117651 1 1 1
1.825338 0.189274 -0.290655 11 11 11
2.983478 0.309365 0.368289 57 57 57
2.436540 0.252652 -0.300774 1 1 1
2.909931 0.301739 0.463359 11 11 11
2.378116 0.246593 -0.209174 1 1 1
3.032674 0.314466 0.592653 12 12 12
2.133616 0.221241 -0.112418 1 1 1
3.242855 0.336261 0.752686 56 56 56
2.275451 0.235948 -0.039931 12 12 12
3.356946 0.348091 0.904314 88 88 88
2.055573 0.198653 -0.553355 3 3 3
2.269081 0.219287 0.039791 1 1 1
2.234509 0.215946 0.117651 1 1 1
1.828581 0.176717 -0.290968 2 2 2
2.999396 0.289866 0.369995 59 59 59
2.394775 0.231434 -0.295411 1 1 1
2.911966 0.281416 0.463359 11 11 11
2.365898 0.228644 -0.207954 1 1 1
3.048474 0.294609 0.595324 10 10 10
2.063541 0.199423 -0.108649 1 1 1
3.272279 0.316238 0.758985 58 58 58
2.286995 0.221018 -0.040106 11 11 11
3.355448 0.324275 0.903278 87 87 87
2.044035 0.197538 -0.550249 3 3 3
2.261120 0.218518 0.039652 1 1 1
2.222581 0.214793 0.117023 1 1 1
1.838412 0.177667 -0.292532 1 1 1
3.019155 0.291775 0.372433 61 61 61
2.414534 0.233344 -0.297849 1 1 1
2.933595 0.283507 0.466800 12 12 12
2.359949 0.228069 -0.207431 1 1 1
3.017208 0.291587 0.589218 11 11 11
2.043661 0.197502 -0.107603 1 1 1
3.287797 0.317737 0.762584 56 56 56
2.292966 0.221595 -0.040210 2 2 2
3.370832 0.325762 0.907420 84 84 84
2.060758 0.184643 -0.554390 2 2 2
2.250640 0.201656 0.039442 1 1 1
2.243919 0.201054 0.118070 1 1 1
1.847873 0.165568 -0.360629 1 1 1
2.986582 0.267596 0.262339 1 1 1
1.808128 0.162007 -0.287527 1 1 1
3.023096 0.270868 0.372676 60 60 60
2.412150 0.216127 -0.297361 1 1 1
2.949275 0.264253 0.468991 11 11 11
2.357514 0.211232 -0.207082 1 1 1
3.105208 0.278225 0.606009 4 4 4
2.056926 0.184299 -0.108231 1 1 1
3.301581 0.295820 0.765283 57 57 57
2.294457 0.205582 -0.040210 2 2 2
3.392265 0.303945 0.912596 82 82 82
2.128103 0.190677 -0.572508 1 1 1
2.230723 0.199872 0.039093 1 1 1
2.228005 0.199628 0.117233 1 1 1
1.824408 0.163466 -0.356050 1 1 1
2.998488 0.268663 0.263385 1 1 1
1.855348 0.166238 -0.295035 3 3 3
3.029027 0.271399 0.373408 61 61 61
2.376560 0.212939 -0.292974 1 1 1
2.963047 0.265487 0.471181 10 10 10
2.351561 0.210699 -0.206559 1 1 1
2.025097 0.181448 -0.106556 1 1 1
3.301581 0.295820 0.765283 56 56 56
2.302424 0.206296 -0.040350 1 1 1
3.419203 0.306359 0.919843 81 81 81
2.263950 0.186926 0.039652 1 1 1
2.217401 0.183083 0.116605 2 2 2
2.980435 0.246084 0.261642 2 2 2
2.078924 0.171649 -0.330390 7 7 7
3.048653 0.251716 0.375601 59 59 59
2.370076 0.195689 -0.291999 1 1 1
3.002233 0.247884 0.477125 11 11 11
2.354960 0.194441 -0.206733 1 1 1
3.228384 0.266556 0.629670 58 58 58
2.074086 0.171250 -0.109068 1 1 1
3.326871 0.274688 0.770682 56 56 56
2.283879 0.188572 -0.040001 1 1 1
3.432810 0.283435 0.922949 87 87 87
2.248007 0.185610 0.039373 1 1 1
2.227354 0.183905 0.117128 1 1 1
2.159639 0.178314 -0.343217 9 9 9
3.070415 0.253513 0.378282 61 61 61
2.374032 0.196015 -0.292486 1 1 1
3.041607 0.251135 0.483382 10 10 10
2.345032 0.193621 -0.205862 1 1 1
3.245993 0.268010 0.633104 50 50 50
2.125839 0.175523 -0.111790 1 1 1
3.340466 0.275810 0.773832 53 53 53
2.281886 0.188407 -0.039966 1 1 1
3.436661 0.283753 0.923984 84 84 84
2.213326 0.167586 0.038744 1 1 1
2.984027 0.225941 0.261816 60 60 60
2.147015 0.162565 -0.341027 8 8 8
3.089885 0.233957 0.380476 110 110 110
2.387188 0.180751 -0.293949 1 1 1
3.147642 0.238330 0.499965 38 38 38
2.344309 0.177504 -0.205688 1 1 1
3.247743 0.245909 0.633104 51 51 51
2.226562 0.168589 -0.117023 1 1 1
3.361698 0.254538 0.778331 53 53 53
2.279128 0.172569 -0.039896 1 1 1
3.450071 0.261229 0.927090 87 87 87
2.229278 0.168794 0.039024 1 1 1
2.995948 0.226844 0.262862 56 56 56
2.162773 0.163759 -0.343530 9 9 9
3.085926 0.233657 0.379989 75 75 75
2.379270 0.180151 -0.292974 1 1 1
3.175218 0.240418 0.504345 14 14 14
2.330402 0.176451 -0.204467 1 1 1
3.251658 0.246206 0.633867 51 51 51
2.278343 0.172509 -0.119745 1 1 1
3.373357 0.255420 0.781030 53 53 53
2.275140 0.172267 -0.039826 1 1 1
3.480892 0.263563 0.935372 91 91 91
2.222422 0.152679 0.038884 1 1 1
3.021311 0.207562 0.264953 55 55 55
2.221015 0.152582 -0.352603 9 9 9
3.093423 0.212516 0.380720 68 68 68
2.340862 0.160815 -0.288099 1 1 1
3.161054 0.217162 0.501842 12 12 12
2.363380 0.162362 -0.207256 1 1 1
3.274842 0.224979 0.638065 55 55 55
2.291447 0.157421 -0.120373 1 1 1
3.380890 0.232264 0.782380 51 51 51
2.274292 0.156242 -0.039791 1 1 1
3.498066 0.240314 0.939513 91 91 91
2.224417 0.152816 0.038919 1 1 1
1.909163 0.131158 -0.441804 0 0 0
3.012755 0.206974 0.158264 1 1 1
2.148626 0.147609 -0.418635 1 1 1
3.009384 0.206742 0.263908 24 24 24
2.226927 0.152988 -0.353542 11 11 11
3.107286 0.213468 0.382426 59 59 59
2.356705 0.161904 -0.290049 1 1 1
3.182732 0.218651 0.505283 12 12 12
2.341516 0.160860 -0.205339 1 1 1
3.290512 0.226056 0.641118 55 55 55
2.271521 0.156052 -0.119326 1 1 1
3.400332 0.233600 0.786879 52 52 52
2.252347 0.154734 -0.039408 1 1 1
3.509630 0.241109 0.942619 94 94 94
2.231442 0.137263 0.039024 1 1 1
1.832250 0.112707 -0.423808 0 0 0
3.010172 0.185165 0.158055 1 1 1
2.159425 0.132833 -0.420543 8 8 8
2.885503 0.177496 0.252926 7 7 7
2.229936 0.137170 -0.353855 12 12 12
3.118641 0.191837 0.383645 29 29 29
2.365729 0.145523 -0.291024 1 1 1
3.087604 0.189928 0.489953 13 13 13
2.314766 0.142388 -0.202899 1 1 1
3.317519 0.204071 0.646079 58 58 58
2.288528 0.140774 -0.120163 1 1 1
3.417477 0.210219 0.790478 55 55 55
2.241421 0.137877 -0.039198 1 1 1
3.515121 0.216226 0.943654 99 99 99
2.213478 0.136158 0.038709 1 1 1
1.960624 0.120604 -0.453501 1 1 1
2.996217 0.184306 0.157322 2 2 2
2.163344 0.133074 -0.421306 9 9 9
2.865617 0.176273 0.251183 7 7 7
2.239794 0.137776 -0.355419 9 9 9
3.120622 0.191959 0.383888 15 15 15
2.375635 0.146132 -0.292243 1 1 1
3.123094 0.192111 0.495584 5 5 5
2.314766 0.142388 -0.202899 1 1 1
3.311640 0.203709 0.644934 55 55 55
2.290521 0.140897 -0.120268 1 1 1
3.429147 0.210937 0.793177 53 53 53
2.249405 0.138368 -0.039338 1 1 1
3.534404 0.217412 0.948831 94 94 94
2.999425 0.163493 0.157427 30 30 30
2.187744 0.119250 -0.425886 9 9 9
2.852851 0.155504 0.249963 4 4 4
2.236757 0.121921 -0.354793 9 9 9
3.115940 0.169844 0.383157 13 13 13
2.366687 0.129004 -0.291024 1 1 1
2.319683 0.126442 -0.203247 1 1 1
3.326704 0.181333 0.647606 56 56 56
2.275495 0.124033 -0.119431 1 1 1
3.442211 0.187629 0.795877 57 57 57
2.240333 0.122116 -0.039163 1 1 1
3.555125 0.193783 0.954007 100 100 100
3.001419 0.163602 0.157531 56 56 56
2.201467 0.119998 -0.428557 10 10 10
2.866777 0.156263 0.251183 2 2 2
2.254509 0.122889 -0.357609 9 9 9
3.068368 0.167251 0.377307 27 27 27
2.342901 0.127707 -0.288099 1 1 1
3.274265 0.178474 0.519362 70 70 70
2.315704 0.126225 -0.202899 1 1 1
3.340427 0.182081 0.650277 55 55 55
2.263529 0.123381 -0.118803 1 1 1
3.459724 0.188583 0.799926 59 59 59
2.224359 0.121246 -0.038884 1 1 1
3.578273 0.195045 0.960219 100 100 100
3.004433 0.143788 0.157636 64 64 64
2.180643 0.104362 -0.424359 11 11 11
2.895612 0.138580 0.253623 2 2 2
2.278952 0.109067 -0.361364 8 8 8
3.164585 0.151452 0.389007 24 24 24
2.343697 0.112166 -0.288099 1 1 1
3.261565 0.156094 0.517172 61 61 61
2.336391 0.111816 -0.204642 1 1 1
3.363132 0.160954 0.654475 57 57 57
2.238363 0.107125 -0.117442 1 1 1
3.462845 0.165727 0.800376 56 56 56
2.233104 0.106873 -0.039024 1 1 1
3.598784 0.172232 0.965395 96 96 96
2.059410 0.098560 -0.475996 1 1 1
3.014408 0.144265 0.158159 60 60 60
2.188487 0.104738 -0.425886 11 11 11
2.925464 0.140008 0.256238 2 2 2
2.275005 0.108878 -0.360738 7 7 7
3.184413 0.152401 0.391444 36 36 36
2.339731 0.111976 -0.287612 1 1 1
3.277350 0.156849 0.519675 61 61 61
2.304549 0.110292 -0.201853 1 1 1
3.382742 0.161893 0.658291 58 58 58
2.270282 0.108652 -0.119117 1 1 1
3.490096 0.167031 0.806674 56 56 56
2.177176 0.104196 -0.038046 1 1 1
3.606503 0.172602 0.967466 96 96 96
3.025057 0.122557 0.052846 1 1 1
2.137963 0.086617 -0.493993 1 1 1
3.035341 0.122973 0.159206 60 60 60
2.189196 0.088693 -0.425886 10 10 10
2.962245 0.120012 0.259375 2 2 2
2.271795 0.092039 -0.360112 6 6 6
3.179495 0.128813 0.390713 14 14 14
2.358340 0.095545 -0.289805 1 1 1
3.300123 0.133700 0.523117 60 60 60
2.305296 0.093396 -0.201853 1 1 1
3.401493 0.137807 0.661726 55 55 55
2.263035 0.091684 -0.118698 1 1 1
3.516540 0.142468 0.812523 59 59 59
2.197862 0.089044 -0.038395 1 1 1
3.626974 0.146942 0.972642 94 94 94
2.989092 0.121099 0.052218 1 1 1
2.159381 0.087485 -0.498941 4 4 4
3.055297 0.123782 0.160253 66 66 66
2.210774 0.089567 -0.430083 9 9 9
2.994097 0.121302 0.262164 4 4 4
2.257979 0.091479 -0.357922 5 5 5
3.161643 0.128090 0.388519 12 12 12
2.344456 0.094983 -0.288099 1 1 1
3.317886 0.134420 0.525933 61 61 61
2.285388 0.092590 -0.200110 1 1 1
3.401493 0.137807 0.661726 53 53 53
2.249066 0.091118 -0.117965 1 1 1
3.530170 0.143021 0.815673 53 53 53
2.205854 0.089367 -0.038535 1 1 1
3.642416 0.147568 0.976783 96 96 96
1.903736 0.063819 -0.510391 1 1 1
2.238401 0.075038 0.039093 1 1 1
2.163835 0.072538 -0.499841 11 11 11
3.056087 0.102449 0.160253 64 64 64
2.232929 0.074854 -0.434281 9 9 9
3.088461 0.103534 0.270357 12 12 12
2.266459 0.075978 -0.359174 5 5 5
3.150557 0.105616 0.387057 12 12 12
2.323238 0.077882 -0.285418 1 1 1
3.324667 0.111452 0.526871 60 60 60
2.289961 0.076766 -0.200458 1 1 1
3.423956 0.114781 0.665923 56 56 56
2.241663 0.075147 -0.117547 1 1 1
3.542768 0.118764 0.818372 56 56 56
2.246396 0.075306 -0.039233 1 1 1
3.666527 0.122912 0.982995 100 100 100
2.167730 0.072669 -0.500741 9 9 9
3.064071 0.102716 0.160671 66 66 66
2.242740 0.075183 -0.436189 9 9 9
3.154173 0.105737 0.276109 19 19 19
2.282253 0.076508 -0.361676 3 3 3
3.037470 0.101825 0.373164 38 38 38
2.305382 0.077283 -0.283224 1 1 1
3.334538 0.111783 0.528436 61 61 61
2.287970 0.076699 -0.200284 1 1 1
3.453388 0.115767 0.671648 51 51 51
2.237670 0.075013 -0.117337 1 1 1
3.560297 0.119351 0.822421 59 59 59
6.239544 0.209167 -0.108973 2 2 2
3.681973 0.123430 0.987136 100 100 100
3.004457 0.080773 0.052462 65 65 65
2.172060 0.058395 -0.501641 9 9 9
3.084651 0.082929 0.161718 66 66 66
2.237302 0.060149 -0.435045 9 9 9
3.148830 0.084655 0.275586 19 19 19
2.341951 0.062962 -0.371063 1 1 1
3.224610 0.086692 0.396075 11 11 11
2.315766 0.062258 -0.284443 1 1 1
3.343105 0.089878 0.529687 57 57 57
2.258554 0.060720 -0.197669 1 1 1
3.469780 0.093283 0.674701 51 51 51
2.230133 0.059956 -0.116919 1 1 1
3.590231 0.096522 0.829170 55 55 55
2.246846 0.060405 -0.039233 1 1 1
3.690435 0.099216 0.989206 100 100 100
2.986466 0.080290 0.052148 43 43 43
2.181801 0.058657 -0.503890 8 8 8
3.100623 0.083359 0.162555 64 64 64
2.249077 0.060465 -0.437334 11 11 11
3.118955 0.083852 0.272972 33 33 33
2.361697 0.063493 -0.374191 1 1 1
3.278188 0.088133 0.402656 64 64 64
2.311797 0.062152 -0.283956 1 1 1
3.364826 0.090462 0.533129 56 56 56
2.270504 0.061041 -0.198715 1 1 1
3.473705 0.093389 0.675464 53 53 53
2.232129 0.060010 -0.117023 1 1 1
3.601919 0.096836 0.831869 49 49 49
3.705884 0.099631 0.993347 100 100 100
2.895006 0.056598 0.050542 7 7 7
2.189965 0.042814 -0.505690 9 9 9
3.113132 0.060862 0.163184 66 66 66
2.257311 0.044131 -0.438861 10 10 10
3.081638 0.060247 0.269660 81 81 81
2.354199 0.046025 -0.372940 1 1 1
3.276761 0.064061 0.402413 54 54 54
2.326084 0.045475 -0.285662 1 1 1
3.391074 0.066296 0.537196 52 52 52
2.278858 0.044552 -0.199412 1 1 1
3.486074 0.068153 0.677754 52 52 52
2.210543 0.043217 -0.115872 1 1 1
3.616171 0.070697 0.835018 48 48 48
3.733556 0.072992 1.000594 100 100 100
2.863017 0.055972 0.049984 9 9 9
2.195811 0.042928 -0.507040 10 10 10
3.129107 0.061175 0.164021 73 73 73
2.271051 0.044399 -0.441532 9 9 9
3.191198 0.062388 0.279247 21 21 21
2.350249 0.045948 -0.372314 1 1 1
3.292639 0.064372 0.404362 55 55 55
2.308221 0.045126 -0.283468 1 1 1
3.398974 0.066451 0.538447 50 50 50
2.262922 0.044241 -0.198018 1 1 1
3.505702 0.068537 0.681570 52 52 52
2.214537 0.043295 -0.116081 1 1 1
3.625913 0.070887 0.837268 50 50 50
3.006967 0.058787 -0.052497 1 1 1
3.752871 0.073369 1.005771 100 100 100
2.855340 0.035883 0.049844 6 6 6
2.213594 0.027818 -0.511089 9 9 9
3.131455 0.039353 0.164126 67 67 67
2.267380 0.028494 -0.440769 9 9 9
3.191556 0.040108 0.279247 29 29 29
2.330760 0.029291 -0.369185 1 1 1
3.308888 0.041583 0.406312 54 54 54
2.300540 0.028911 -0.282493 1 1 1
3.413181 0.042894 0.540638 55 55 55
2.283098 0.028692 -0.199761 1 1 1
3.525726 0.044308 0.685386 53 53 53
2.190820 0.027532 -0.114825 1 1 1
3.645805 0.045817 0.841767 49 49 49
2.983310 0.037491 -0.052078 1 1 1
3.776472 0.047459 1.011982 100 100 100
2.833345 0.035607 0.049460 4 4 4
2.221388 0.027916 -0.512888 11 11 11
3.145435 0.039529 0.164858 64 64 64
2.281121 0.028667 -0.443440 8 8 8
3.155696 0.039658 0.276109 19 19 19
2.326810 0.029241 -0.368560 1 1 1
3.332707 0.041882 0.409237 56 56 56
2.320390 0.029160 -0.284931 1 1 1
3.421082 0.042993 0.541889 55 55 55
2.247238 0.028241 -0.196623 1 1 1
3.541431 0.044505 0.688439 52 52 52
2.262716 0.028436 -0.118593 1 1 1
3.661394 0.046013 0.845366 52 52 52
2.939320 0.036939 -0.051310 2 2 2
3.788062 0.047605 1.015088 100 100 100
2.097954 0.012450 -0.562155 1 1 1
2.815522 0.016708 0.049146 2 2 2
2.233217 0.013252 -0.515588 14 14 14
3.153617 0.018714 0.165277 59 59 59
2.310710 0.013712 -0.449164 6 6 6
3.155889 0.018728 0.276109 14 14 14
2.315101 0.013738 -0.366682 1 1 1
3.344822 0.019849 0.410700 56 56 56
2.308622 0.013700 -0.283468 1 1 1
3.441046 0.020420 0.545018 56 56 56
2.251360 0.013360 -0.196972 1 1 1
3.553428 0.021087 0.690729 52 52 52
3.685003 0.021868 0.850765 53 53 53
3.807613 0.022595 1.020265 100 100 100
2.082499 0.012358 -0.558014 1 1 1
2.859514 0.016969 0.049914 2 2 2
2.219576 0.013171 -0.512439 14 14 14
3.161605 0.018762 0.165696 39 39 39
2.306783 0.013689 -0.448401 6 6 6
3.100103 0.018397 0.271229 45 45 45
2.311150 0.013715 -0.366057 1 1 1
3.352762 0.019896 0.411675 54 54 54
2.286786 0.013570 -0.280787 1 1 1
3.466725 0.020572 0.549085 63 63 63
2.247376 0.013336 -0.196623 1 1 1
3.565207 0.021157 0.693018 48 48 48
3.704490 0.021983 0.855264 50 50 50
3.009489 0.017859 -0.052532 59 59 59
3.826931 0.022710 1.025441 100 100 100
2.067080 -0.002165 -0.553873 1 1 1
2.913555 -0.003051 0.050856 2 2 2
2.225460 -0.002330 -0.513788 7 7 7
3.147679 -0.003296 0.164963 14 14 14
2.316639 -0.002426 -0.450309 5 5 5
3.056324 -0.003201 0.267394 128 128 128
2.301313 -0.002410 -0.364492 1 1 1
3.368700 -0.003528 0.413625 55 55 55
2.272929 -0.002380 -0.279081 1 1 1
3.478636 -0.003643 0.550962 57 57 57
2.249406 -0.002356 -0.196798 1 1 1
3.584901 -0.003754 0.696834 53 53 53
3.720143 -0.003896 0.858863 48 48 48
3.017539 -0.003160 -0.052671 56 56 56
3.857906 -0.004040 1.033723 100 100 100
2.028443 -0.002124 -0.543520 1 1 1
2.951549 -0.003091 0.051520 2 2 2
2.241050 -0.002347 -0.517387 1 1 1
3.159662 -0.003309 0.165591 18 18 18
2.287190 -0.002395 -0.444585 5 5 5
3.221692 -0.003374 0.281862 13 13 13
2.311189 -0.002420 -0.366057 1 1 1
3.388551 -0.003548 0.416062 56 56 56
2.278885 -0.002386 -0.279812 1 1 1
3.482587 -0.003647 0.551588 57 57 57
2.255384 -0.002362 -0.197321 1 1 1
3.616313 -0.003787 0.702940 56 56 56
3.737682 -0.003914 0.862912 48 48 48
3.021538 -0.003164 -0.052741 58 58 58
3.877224 -0.004060 1.038900 100 100 100
1.927923 -0.015815 -0.516603 1 1 1
3.079427 -0.025261 0.053753 11 11 11
2.240976 -0.018383 -0.517387 1 1 1
3.107631 -0.025493 0.162869 58 58 58
2.285151 -0.018746 -0.444203 4 4 4
3.295301 -0.027032 0.288311 45 45 45
2.311113 -0.018959 -0.366057 1 1 1
3.408289 -0.027959 0.418499 55 55 55
2.270869 -0.018628 -0.278837 1 1 1
3.498274 -0.028697 0.554091 57 57 57
2.235386 -0.018337 -0.195577 1 1 1
3.635825 -0.029826 0.706757 53 53 53
3.758993 -0.030836 0.867861 45 45 45
3.029437 -0.024851 -0.052881 59 59 59
3.880959 -0.031836 1.039935 100 100 100
1.902810 -0.015609 -0.509874 1 1 1
3.115421 -0.025557 0.054382 47 47 47
2.235130 -0.018335 -0.516038 1 1 1
3.101639 -0.025443 0.162555 36 36 36
2.306746 -0.018923 -0.448401 4 4 4
3.323194 -0.027261 0.290752 60 60 60
2.291360 -0.018797 -0.362928 1 1 1
3.420199 -0.028057 0.419962 54 54 54
2.284764 -0.018742 -0.280543 1 1 1
3.521978 -0.028892 0.557845 57 57 57
2.247340 -0.018435 -0.196623 1 1 1
3.655457 -0.029987 0.710573 53 53 53
2.931878 -0.024051 -0.153658 1 1 1
3.790172 -0.031092 0.875060 42 42 42
3.045434 -0.024982 -0.053160 58 58 58
3.904141 -0.032027 1.046147 100 100 100
1.900728 -0.028532 -0.509356 2 2 2
3.149165 -0.047272 0.054975 65 65 65
2.199880 -0.033022 -0.507939 1 1 1
3.229204 -0.048473 0.169254 37 37 37
2.314416 -0.034742 -0.449928 1 1 1
3.320939 -0.049850 0.290577 58 58 58
2.295129 -0.034452 -0.363554 1 1 1
3.423898 -0.051396 0.420449 54 54 54
2.284584 -0.034294 -0.280543 1 1 1
3.547377 -0.053250 0.561913 60 60 60
2.245170 -0.033702 -0.196449 1 1 1
3.663020 -0.054985 0.712099 50 50 50
2.729946 -0.040979 -0.143087 1 1 1
3.805461 -0.057124 0.878659 42 42 42
3.063188 -0.045981 -0.053474 55 55 55
3.930875 -0.059006 1.053394 100 100 100
1.923908 -0.028880 -0.515568 3 3 3
3.155164 -0.047362 0.055080 63 63 63
2.209622 -0.033169 -0.510189 1 1 1
3.141335 -0.047154 0.164649 10 10 10
2.324231 -0.034889 -0.451836 1 1 1
3.344845 -0.050209 0.292669 58 58 58
2.291179 -0.034393 -0.362928 1 1 1
3.439777 -0.051634 0.422399 51 51 51
2.244886 -0.033698 -0.275668 1 1 1
3.571079 -0.053605 0.565667 56 56 56
6.257390 -0.093929 -0.547512 1 1 1
3.680687 -0.055251 0.715534 55 55 55
2.929649 -0.043977 -0.153554 10 10 10
3.813255 -0.057241 0.880458 42 42 42
3.085182 -0.046312 -0.053858 54 54 54
3.954055 -0.059354 1.059605 100 100 100
1.925575 -0.043025 -0.516085 8 8 8
3.178722 -0.071025 0.055499 61 61 61
2.182044 -0.048755 -0.503890 1 1 1
3.067024 -0.068529 0.160776 13 13 13
2.304285 -0.051487 -0.448020 1 1 1
3.360322 -0.075083 0.294063 57 57 57
2.284941 -0.051055 -0.361989 1 1 1
3.459152 -0.077291 0.424837 50 50 50
2.248548 -0.050241 -0.276156 1 1 1
3.572565 -0.079825 0.565980 55 55 55
3.701774 -0.082712 0.719732 53 53 53
2.981164 -0.066611 -0.156275 27 27 27
3.836112 -0.085714 0.885857 45 45 45
3.082761 -0.068881 -0.053823 55 55 55
3.984415 -0.089028 1.067887 100 100 100
1.906262 -0.042593 -0.510909 25 25 25
3.184720 -0.071159 0.055603 57 57 57
2.158665 -0.048233 -0.498492 1 1 1
3.073015 -0.068663 0.161090 23 23 23
2.308211 -0.051575 -0.448783 1 1 1
3.362314 -0.075127 0.294238 56 56 56
2.286915 -0.051099 -0.362302 1 1 1
3.482968 -0.077823 0.427761 54 54 54
2.240610 -0.050064 -0.275181 1 1 1
3.588364 -0.080178 0.568483 55 55 55
3.725327 -0.083238 0.724311 52 52 52
2.861358 -0.063934 -0.149995 7 7 7
3.859491 -0.086236 0.891256 42 42 42
3.092757 -0.069104 -0.053998 54 54 54
3.996004 -0.089286 1.070993 100 100 100
1.917514 -0.055906 -0.514015 49 49 49
3.178165 -0.092660 0.055499 12 12 12
2.115433 -0.061676 -0.488594 1 1 1
3.064490 -0.089346 0.160671 51 51 51
2.296032 -0.066941 -0.446493 1 1 1
3.383632 -0.098651 0.296155 58 58 58
2.270718 -0.066203 -0.359799 1 1 1
3.506168 -0.102223 0.430686 54 54 54
2.244186 -0.065430 -0.275668 1 1 1
3.611429 -0.105292 0.572237 50 50 50
3.734486 -0.108880 0.726219 50 50 50
2.856864 -0.083293 -0.149786 7 7 7
3.888033 -0.113357 0.898005 48 48 48
3.108206 -0.090621 -0.054277 56 56 56
4.014614 -0.117047 1.076170 100 100 100
1.921376 -0.056018 -0.515050 53 53 53
3.188159 -0.092952 0.055673 15 15 15
2.053100 -0.059859 -0.474197 1 1 1
3.054508 -0.089055 0.160148 12 12 12
2.307806 -0.067285 -0.448783 1 1 1
3.395581 -0.098999 0.297201 53 53 53
2.270718 -0.066203 -0.359799 1 1 1
3.506168 -0.102223 0.430686 51 51 51
2.244186 -0.065430 -0.275668 1 1 1
3.627226 -0.105753 0.574740 50 50 50
2.873797 -0.083786 -0.251531 1 1 1
3.752148 -0.109395 0.729654 52 52 52
2.816936 -0.082128 -0.147692 6 6 6
3.897773 -0.113641 0.900254 52 52 52
3.128194 -0.091203 -0.054626 57 57 57
4.037786 -0.117723 1.082381 100 100 100
1.932534 -0.069512 -0.518156 53 53 53
3.183456 -0.114507 0.055603 12 12 12
2.037065 -0.073272 -0.470598 1 1 1
3.069799 -0.110418 0.160985 11 11 11
2.303371 -0.082851 -0.448020 1 1 1
3.430668 -0.123399 0.300339 55 55 55
2.276137 -0.081871 -0.360738 1 1 1
3.525229 -0.126800 0.433124 52 52 52
2.209964 -0.079491 -0.271525 1 1 1
3.650111 -0.131292 0.578495 55 55 55
2.889089 -0.103918 -0.252926 1 1 1
3.774860 -0.135779 0.734233 52 52 52
2.802340 -0.100798 -0.146959 5 5 5
3.912489 -0.140729 0.903853 48 48 48
3.143488 -0.113069 -0.054905 59 59 59
4.060058 -0.146037 1.088593 100 100 100
1.940256 -0.069790 -0.520226 53 53 53
3.125502 -0.112422 0.054591 11 11 11
2.027327 -0.072922 -0.468348 1 1 1
2.271979 -0.081721 -0.441914 1 1 1
3.442615 -0.123828 0.301385 57 57 57
2.270215 -0.081658 -0.359799 1 1 1
3.545067 -0.127514 0.435561 52 52 52
2.237737 -0.080490 -0.274937 1 1 1
3.663930 -0.131789 0.580685 56 56 56
2.757676 -0.099192 -0.241421 9 9 9
3.802328 -0.136767 0.739576 53 53 53
2.806331 -0.100942 -0.147169 4 4 4
3.933911 -0.141500 0.908802 45 45 45
3.139491 -0.112925 -0.054835 56 56 56
4.092879 -0.147218 1.097393 100 100 100
1.933917 -0.083422 -0.518673 51 51 51
3.266464 -0.140903 0.057069 28 28 28
2.038435 -0.087931 -0.471048 2 2 2
3.338310 -0.144003 0.175116 56 56 56
2.257606 -0.097385 -0.439242 1 1 1
3.461546 -0.149318 0.303128 62 62 62
2.265626 -0.097731 -0.359174 1 1 1
3.559930 -0.153562 0.437511 51 51 51
3.676708 -0.158600 0.582875 55 55 55
2.780782 -0.119953 -0.243513 10 10 10
3.828712 -0.165157 0.744918 49 49 49
2.823496 -0.121795 -0.148111 4 4 4
3.963949 -0.170990 0.916001 45 45 45
3.150590 -0.135905 -0.055045 56 56 56
4.101371 -0.176918 1.099981 100 100 100
1.933917 -0.083422 -0.518673 52 52 52
3.246486 -0.140042 0.056720 21 21 21
2.034541 -0.087763 -0.470148 5 5 5
3.366246 -0.145208 0.176582 56 56 56
2.265452 -0.097723 -0.440769 1 1 1
3.451593 -0.148889 0.302256 55 55 55
2.247864 -0.096965 -0.356358 1 1 1
3.583729 -0.154589 0.440436 54 54 54
3.694470 -0.159366 0.585691 56 56 56
3.001732 -0.129484 -0.262862 33 33 33
3.830673 -0.165241 0.745300 41 41 41
2.867395 -0.123689 -0.150414 3 3 3
3.991206 -0.172166 0.922299 42 42 42
3.162577 -0.136422 -0.055254 58 58 58
4.120671 -0.177751 1.105157 100 100 100
1.944898 -0.096823 -0.521779 51 51 51
3.237497 -0.161172 0.056581 13 13 13
2.012505 -0.100188 -0.465199 15 15 15
3.381167 -0.168324 0.177419 54 54 54
2.245146 -0.111770 -0.436953 1 1 1
3.490329 -0.173759 0.305742 60 60 60
2.257036 -0.112362 -0.357922 1 1 1
3.594521 -0.178946 0.441898 49 49 49
3.724898 -0.185436 0.590697 61 61 61
3.016726 -0.150182 -0.264256 58 58 58
3.845180 -0.191424 0.748353 44 44 44
2.894438 -0.144094 -0.151879 3 3 3
4.013332 -0.199796 0.927698 43 43 43
3.189564 -0.158786 -0.055743 54 54 54
4.154132 -0.206805 1.114475 100 100 100
1.960334 -0.097591 -0.525920 50 50 50
3.263461 -0.162465 0.057034 12 12 12
2.016398 -0.100382 -0.466099 37 37 37
3.383162 -0.168424 0.177524 51 51 51
2.233381 -0.111184 -0.434663 1 1 1
3.502268 -0.174353 0.306788 55 55 55
2.247171 -0.111871 -0.356358 1 1 1
3.610382 -0.179735 0.443848 52 52 52
3.746601 -0.186517 0.594138 57 57 57
3.028666 -0.150776 -0.265302 63 63 63
3.868710 -0.192596 0.752932 42 42 42
3.008141 -0.149754 -0.157845 18 18 18
4.017225 -0.199989 0.928598 40 40 40
3.197552 -0.159184 -0.055883 49 49 49
4.188862 -0.208534 1.123792 100 100 100
1.963462 -0.111493 -0.526956 52 52 52
3.228307 -0.183317 0.056441 13 13 13
2.031213 -0.115341 -0.469698 57 57 57
3.397856 -0.192944 0.178361 50 50 50
2.232550 -0.126773 -0.434663 1 1 1
3.522847 -0.200042 0.308706 55 55 55
2.236474 -0.126996 -0.354793 1 1 1
3.636786 -0.206512 0.447260 50 50 50
3.753096 -0.213116 0.595390 57 57 57
3.047431 -0.173046 -0.267045 61 61 61
3.894712 -0.221158 0.758275 48 48 48
3.136636 -0.178111 -0.164649 60 60 60
4.044915 -0.229687 0.935346 46 46 46
4.210449 -0.239087 1.130004 100 100 100
1.967319 -0.111712 -0.527991 49 49 49
3.098536 -0.175948 0.054172 17 17 17
2.044832 -0.116114 -0.472847 62 62 62
3.413808 -0.193850 0.179198 51 51 51
2.154146 -0.122321 -0.419398 1 1 1
3.534782 -0.200719 0.309752 55 55 55
2.240419 -0.127220 -0.355419 1 1 1
3.662550 -0.207975 0.450429 48 48 48
3.780707 -0.214684 0.599770 55 55 55
3.051410 -0.173272 -0.267394 58 58 58
3.922154 -0.222716 0.763618 52 52 52
3.146606 -0.178677 -0.165172 63 63 63
4.072153 -0.231234 0.941645 46 46 46
3.050620 -0.173227 -0.053335 10 10 10
4.229737 -0.240182 1.135180 100 100 100
1.970326 -0.126034 -0.529026 49 49 49
3.338667 -0.213561 0.058396 28 28 28
2.042004 -0.130619 -0.472397 52 52 52
3.436252 -0.219804 0.180454 50 50 50
2.127746 -0.136104 -0.414437 1 1 1
3.541208 -0.226517 0.310449 57 57 57
2.233537 -0.142871 -0.354480 1 1 1
3.672855 -0.234938 0.451892 45 45 45
2.783366 -0.178041 -0.342453 1 1 1
3.784988 -0.242111 0.600708 54 54 54
3.054068 -0.195357 -0.267742 58 58 58
3.936134 -0.251779 0.766671 51 51 51
3.163185 -0.202337 -0.166114 61 61 61
4.099566 -0.262233 0.948394 48 48 48
3.031342 -0.193903 -0.053020 9 9 9
4.245261 -0.271553 1.139839 100 100 100
1.983821 -0.126897 -0.532650 48 48 48
3.348645 -0.214200 0.058570 55 55 55
2.045893 -0.130868 -0.473297 54 54 54
3.456184 -0.221079 0.181501 50 50 50
2.133623 -0.136480 -0.415582 1 1 1
3.563080 -0.227916 0.312366 51 51 51
3.684741 -0.235698 0.453354 46 46 46
2.759594 -0.176520 -0.339528 10 10 10
3.816529 -0.244128 0.605714 52 52 52
3.073952 -0.196629 -0.269486 56 56 56
3.947889 -0.252531 0.768960 46 46 46
3.163185 -0.202337 -0.166114 60 60 60
4.124848 -0.263850 0.954242 50 50 50
3.003403 -0.192116 -0.052532 4 4 4
4.274180 -0.273403 1.147604 100 100 100
1.990595 -0.141291 -0.534720 47 47 47
3.367015 -0.238988 0.058919 53 53 53
2.054649 -0.145837 -0.475547 56 56 56
3.454556 -0.245202 0.181501 51 51 51
2.130660 -0.151233 -0.415200 2 2 2
3.585250 -0.254478 0.314458 48 48 48
3.704787 -0.262963 0.456035 49 49 49
2.752354 -0.195360 -0.338797 3 3 3
3.836407 -0.272305 0.609156 57 57 57
3.096353 -0.219777 -0.271577 58 58 58
3.969530 -0.281754 0.773540 48 48 48
3.173649 -0.225263 -0.166742 58 58 58
4.136512 -0.293606 0.957392 43 43 43
2.999994 -0.212937 -0.052497 3 3 3
4.308780 -0.305834 1.157439 100 100 100
1.998303 -0.141838 -0.536791 47 47 47
3.392946 -0.240829 0.059373 57 57 57
2.064368 -0.146527 -0.477796 54 54 54
3.476471 -0.246757 0.182652 52 52 52
2.134577 -0.151511 -0.415964 4 4 4
3.611087 -0.256312 0.316724 47 47 47
3.722608 -0.264228 0.458229 46 46 46
2.825618 -0.200560 -0.347815 7 7 7
3.850199 -0.273284 0.611346 52 52 52
3.112252 -0.220905 -0.272972 59 59 59
4.004780 -0.284256 0.780409 45 45 45
3.193572 -0.226677 -0.167789 60 60 60
4.155951 -0.294986 0.961891 43 43 43
3.007973 -0.213504 -0.052636 2 2 2
4.331904 -0.307475 1.163650 100 100 100
1.993412 -0.155485 -0.535755 49 49 49
3.401150 -0.265287 0.059548 53 53 53
2.069124 -0.161390 -0.479146 50 50 50
3.494575 -0.272574 0.183699 60 60 60
2.125638 -0.165798 -0.414437 12 12 12
3.619141 -0.282290 0.317596 51 51 51
3.740463 -0.291753 0.460666 48 48 48
2.824149 -0.220282 -0.347815 10 10 10
3.856075 -0.300771 0.612597 54 54 54
3.112620 -0.242782 -0.273146 55 55 55
4.034015 -0.314650 0.786515 40 40 40
3.203859 -0.249899 -0.168417 57 57 57
4.192647 -0.327023 0.970889 43 43 43
3.046282 -0.237608 -0.053335 3 3 3
4.343134 -0.338761 1.167274 99 99 99
2.001116 -0.156086 -0.537826 47 47 47
3.401150 -0.265287 0.059548 56 56 56
2.084666 -0.162602 -0.482745 50 50 50
3.516479 -0.274283 0.184851 57 57 57
2.129553 -0.166104 -0.415200 30 30 30
3.627086 -0.282910 0.318293 51 51 51
3.770150 -0.294069 0.464322 50 50 50
2.800400 -0.218429 -0.344890 9 9 9
3.891524 -0.303536 0.618229 54 54 54
3.122552 -0.243557 -0.274018 58 58 58
4.045758 -0.315566 0.788804 42 42 42
3.219788 -0.251141 -0.169254 60 60 60
4.217904 -0.328993 0.976737 40 40 40
3.068212 -0.239318 -0.053719 5 5 5
4.373950 -0.341165 1.175556 94 94 94
2.011557 -0.170683 -0.540932 48 48 48
3.423176 -0.290461 0.059966 56 56 56
2.083511 -0.176788 -0.482745 50 50 50
3.536422 -0.300070 0.186002 58 58 58
2.140110 -0.181591 -0.417490 47 47 47
3.648900 -0.309614 0.320385 56 56 56
3.775973 -0.320396 0.465297 49 49 49
2.800826 -0.237654 -0.345134 7 7 7
3.922829 -0.332857 0.623548 60 60 60
3.140674 -0.266490 -0.275761 58 58 58
4.063079 -0.344757 0.792621 45 45 45
3.212034 -0.272545 -0.168940 22 22 22
4.231101 -0.359014 0.980337 40 40 40
3.090422 -0.262226 -0.054137 7 7 7
4.402325 -0.373543 1.183838 99 99 99
2.023106 -0.171663 -0.544038 48 48 48
3.447086 -0.292490 0.060385 58 58 58
2.089337 -0.177283 -0.484095 54 54 54
3.542392 -0.300576 0.186316 53 53 53
2.144022 -0.181923 -0.418253 48 48 48
3.678679 -0.312140 0.322999 57 57 57
2.300947 -0.195238 -0.365744 1 1 1
3.791796 -0.321739 0.467247 51 51 51
2.773134 -0.235304 -0.341722 6 6 6
3.944481 -0.334694 0.626989 52 52 52
3.156556 -0.267838 -0.277155 59 59 59
4.086554 -0.346749 0.797200 40 40 40
3.206064 -0.272038 -0.168626 8 8 8
