-1.869048 1.527620 0.382326 82 82 82
-1.843897 1.507064 0.462903 90 90 90
-2.045943 1.672201 -0.138481 42 42 42
-1.804614 1.474957 0.538083 92 92 92
-2.006634 1.640073 -0.045237 79 79 79
-1.782992 1.457284 0.617025 95 95 95
-1.979741 1.641279 0.044888 74 74 74
-1.960415 1.625257 0.133457 82 82 82
-1.921891 1.593319 0.218412 91 91 91
-1.899570 1.574814 0.302967 91 91 91
-1.867462 1.548196 0.384203 70 70 70
-2.086011 1.729381 -0.237064 59 59 59
-1.830308 1.517394 0.462139 88 88 88
-2.054208 1.703015 -0.139842 40 40 40
-1.803275 1.494982 0.540782 87 87 87
-2.007451 1.664252 -0.045516 85 85 85
-1.772775 1.469696 0.617025 99 99 99
-1.985898 1.646384 0.045027 74 74 74
-1.968103 1.631631 0.133980 73 73 73
-1.934162 1.603492 0.219807 91 91 91
-1.905683 1.579882 0.303942 100 100 100
-1.876586 1.555760 0.386080 77 77 77
-2.096748 1.738282 -0.238284 72 72 72
-1.836354 1.522406 0.463666 88 88 88
-2.054208 1.703015 -0.139842 71 71 71
-1.815276 1.504932 0.544382 87 87 87
-2.022845 1.677014 -0.045865 82 82 82
-1.787647 1.482026 0.622201 91 91 91
-1.988131 1.671791 0.045341 78 78 78
-1.956664 1.645331 0.133980 76 76 76
-1.932070 1.624650 0.220853 94 94 94
-1.897646 1.595703 0.304430 100 100 100
-1.880798 1.581537 0.389209 86 86 86
-2.092186 1.759289 -0.239155 66 66 66
-1.837702 1.545297 0.466719 90 90 90
-2.045326 1.719885 -0.140051 67 67 67
-1.801743 1.515060 0.543482 87 87 87
-2.026393 1.703965 -0.046214 79 79 79
-1.781693 1.498200 0.623754 92 92 92
-2.000375 1.682087 0.045621 78 78 78
-1.964307 1.651758 0.134503 82 82 82
-1.935119 1.627214 0.221201 91 91 91
-1.906762 1.603369 0.305892 100 100 100
-1.877775 1.578994 0.388583 74 74 74
-2.104385 1.769548 -0.240550 66 66 66
-1.852728 1.557932 0.470535 85 85 85
-2.054497 1.727598 -0.140679 67 67 67
-1.815166 1.526348 0.547531 84 84 84
-2.020271 1.698817 -0.046074 79 79 79
-1.793521 1.508146 0.627895 92 92 92
-1.994669 1.701201 0.045760 78 78 78
-1.961846 1.673208 0.135131 82 82 82
-1.929776 1.645856 0.221899 87 87 87
-1.901563 1.621794 0.306867 91 91 91
-1.869711 1.594628 0.389209 77 77 77
-2.088948 1.781610 -0.240201 66 66 66
-1.850769 1.578473 0.472825 85 85 85
-2.054544 1.752267 -0.141516 69 69 69
-1.810397 1.544041 0.549330 78 78 78
-2.023577 1.725856 -0.046423 77 77 77
-1.784419 1.521884 0.628413 90 90 90
-1.999233 1.705094 0.045865 86 86 86
-1.974003 1.683576 0.135969 85 85 85
-1.932808 1.648442 0.222247 91 91 91
-1.916667 1.634675 0.309304 91 91 91
-1.875723 1.599756 0.390460 79 79 79
-2.098044 1.789367 -0.241247 66 66 66
-1.850769 1.578473 0.472825 82 82 82
-2.066701 1.762635 -0.142354 69 69 69
-1.819294 1.551628 0.552030 82 82 82
-2.026620 1.728452 -0.046493 77 77 77
-1.787358 1.524391 0.629448 90 90 90
-1.989094 1.719971 0.045900 78 78 78
-1.968541 1.702199 0.136388 82 82 82
-1.932092 1.670682 0.223467 85 85 85
-1.903994 1.646385 0.309061 96 96 96
-0.965511 0.834878 -0.156724 1 1 1
-1.873756 1.620239 0.392338 82 82 82
-2.097872 1.814032 -0.242642 61 61 61
-1.842952 1.593602 0.473588 77 77 77
-2.051634 1.774049 -0.142144 71 71 71
-1.820482 1.574173 0.555629 78 78 78
-2.029934 1.755286 -0.046842 72 72 72
-1.785709 1.544104 0.632554 87 87 87
-2.001195 1.730435 0.046179 78 78 78
-1.968541 1.702199 0.136388 79 79 79
-1.941135 1.678501 0.224513 85 85 85
-1.900991 1.643788 0.308573 86 86 86
-0.926470 0.801120 -0.150387 1 1 1
-1.888698 1.633159 0.395466 79 79 79
-2.108422 1.823154 -0.243862 57 57 57
-1.851862 1.601307 0.475878 80 80 80
-2.060698 1.781887 -0.142772 71 71 71
-1.814586 1.569074 0.553829 80 80 80
-2.042035 1.765750 -0.047121 79 79 79
-1.797399 1.554212 0.636695 83 83 83
-1.996582 1.750956 0.046354 86 86 86
-1.965619 1.723802 0.137016 82 82 82
-1.941353 1.702521 0.225908 82 82 82
-1.905886 1.671417 0.311254 91 91 91
-0.935780 0.820657 -0.152824 1 1 1
-1.874281 1.643700 0.394841 74 74 74
-2.107626 1.848339 -0.245256 57 57 57
-1.852446 1.624552 0.478931 84 84 84
-2.060221 1.806765 -0.143610 65 65 65
-1.812379 1.589413 0.556529 78 78 78
-2.026651 1.777326 -0.047052 74 74 74
-1.795220 1.574365 0.639801 81 81 81
-2.010113 1.762822 0.046668 82 82 82
-1.974629 1.731703 0.137644 85 85 85
-1.941353 1.702521 0.225908 82 82 82
-1.919318 1.683197 0.313448 86 86 86
-0.956674 0.838981 -0.156236 5 5 5
-1.880221 1.648910 0.396092 77 77 77
-2.109124 1.849652 -0.245431 66 66 66
-1.858350 1.629730 0.480457 92 92 92
-2.066228 1.812033 -0.144029 67 67 67
-1.815309 1.591983 0.557429 75 75 75
-2.032665 1.782600 -0.047191 79 79 79
-1.792315 1.571818 0.638765 85 85 85
-1.997758 1.776812 0.046668 78 78 78
-1.977415 1.758720 0.138690 85 85 85
-1.933886 1.720005 0.226431 76 76 76
-0.687834 0.611762 -0.145797 4 4 4
-1.916420 1.704471 0.314910 78 78 78
-0.980460 0.872024 -0.161111 8 8 8
-1.880472 1.672498 0.398595 79 79 79
-2.102115 1.869628 -0.246128 61 61 61
-1.843994 1.640054 0.479694 84 84 84
-2.068451 1.839687 -0.145075 67 67 67
-1.815800 1.614978 0.561028 71 71 71
-2.032125 1.807378 -0.047471 79 79 79
-1.789959 1.591995 0.641871 83 83 83
-2.003735 1.782128 0.046807 82 82 82
-1.980400 1.761374 0.138900 82 82 82
-1.945796 1.730598 0.227825 73 73 73
-0.687834 0.611762 -0.145797 4 4 4
-1.913454 1.701832 0.314423 82 82 82
-0.965627 0.858832 -0.158674 8 8 8
-1.886376 1.677749 0.399846 77 77 77
-2.115514 1.881545 -0.247697 59 59 59
-1.849862 1.645273 0.481220 90 90 90
-2.068451 1.839687 -0.145075 65 65 65
-1.824537 1.622749 0.563727 87 87 87
-2.044078 1.818010 -0.047750 77 77 77
-1.792846 1.594563 0.642907 78 78 78
-2.006093 1.809467 0.047156 82 82 82
-1.971021 1.777832 0.139109 85 85 85
-1.941065 1.750812 0.228697 70 70 70
-1.910371 1.723126 0.315885 74 74 74
-0.961081 0.866882 -0.158918 19 19 19
-1.883419 1.698816 0.401724 74 74 74
-2.114162 1.906944 -0.249091 59 59 59
-1.847077 1.666037 0.483510 84 84 84
-2.064456 1.862109 -0.145703 63 63 63
-1.810269 1.632836 0.562828 77 77 77
-2.037276 1.837593 -0.047889 75 75 75
-1.790277 1.614804 0.646012 81 81 81
-2.012033 1.814824 0.047296 78 78 78
-1.976954 1.783183 0.139528 85 85 85
-1.954380 1.762822 0.230265 76 76 76
-1.919215 1.731104 0.317348 74 74 74
-0.946341 0.853586 -0.156480 71 71 71
-1.886352 1.701462 0.402349 72 72 72
-2.120080 1.912282 -0.249788 57 57 57
-1.855824 1.673927 0.485800 84 84 84
-2.076320 1.872811 -0.146541 63 63 63
-1.821846 1.643278 0.566427 82 82 82
-2.040246 1.840272 -0.047959 74 74 74
-1.801753 1.625155 0.650153 87 87 87
-2.009643 1.838274 0.047540 74 74 74
-1.979194 1.810422 0.140574 89 89 89
-1.940555 1.775078 0.230091 78 78 78
-0.731697 0.669303 -0.157060 1 1 1
-1.915871 1.752499 0.318810 78 78 78
-0.950612 0.869550 -0.158186 100 100 100
-1.877343 1.717257 0.402975 74 74 74
-2.112559 1.932415 -0.250486 68 68 68
-1.852785 1.694792 0.488089 92 92 92
-2.080880 1.903437 -0.147797 59 59 59
-1.813205 1.658588 0.567327 84 84 84
-2.030300 1.857170 -0.048029 74 74 74
-1.784662 1.632479 0.648083 85 85 85
-2.009643 1.838274 0.047540 74 74 74
-1.988036 1.818510 0.141202 82 82 82
-1.944966 1.779113 0.230614 76 76 76
-0.752103 0.687969 -0.161440 1 1 1
-1.920265 1.756519 0.319541 72 72 72
-0.949147 0.868211 -0.157943 100 100 100
-1.891919 1.730589 0.406104 79 79 79
-2.119910 1.939139 -0.251357 61 61 61
-1.852785 1.694792 0.488089 90 90 90
-2.089722 1.911525 -0.148425 61 61 61
-1.821832 1.666479 0.570026 79 79 79
-2.045055 1.870667 -0.048378 74 74 74
-1.796066 1.642910 0.652224 81 81 81
-2.005556 1.860419 0.047750 74 74 74
-1.987006 1.843211 0.142040 79 79 79
-1.944183 1.803488 0.232009 76 76 76
-0.674871 0.626032 -0.145797 4 4 4
-1.910867 1.772582 0.320029 72 72 72
-0.929965 0.862665 -0.155749 79 79 79
-1.891377 1.754502 0.408607 72 72 72
-2.118006 1.964731 -0.252752 61 61 61
-1.846665 1.713027 0.489616 86 86 86
-2.076326 1.926067 -0.148425 59 59 59
-1.821583 1.689760 0.573625 90 90 90
-2.049538 1.901218 -0.048797 79 79 79
-1.790217 1.660664 0.654295 78 78 78
-2.017285 1.871299 0.048029 71 71 71
-1.987006 1.843211 0.142040 79 79 79
-1.958790 1.817037 0.233752 73 73 73
-0.742937 0.689173 -0.160502 1 1 1
-1.913777 1.775282 0.320516 67 67 67
-0.918322 0.851865 -0.153799 50 50 50
-1.902962 1.765250 0.411110 72 72 72
-2.132613 1.978281 -0.254495 64 64 64
-1.858180 1.723708 0.492669 92 92 92
-2.082183 1.931501 -0.148843 59 59 59
-1.824441 1.692410 0.574525 92 92 92
-2.055402 1.906658 -0.048937 75 75 75
-1.801548 1.671174 0.658436 76 76 76
-2.019068 1.898686 0.048378 71 71 71
-1.981689 1.863535 0.142563 76 76 76
-1.953634 1.837153 0.234623 78 78 78
-0.792913 0.745637 -0.172391 1 1 1
-1.933464 1.818185 0.325879 100 100 100
-0.905272 0.851297 -0.152580 31 31 31
-1.893781 1.780868 0.411736 65 65 65
-2.127806 2.000940 -0.255541 64 64 64
-1.854985 1.744386 0.494959 84 84 84
-2.080628 1.956575 -0.149681 57 57 57
-1.812879 1.704790 0.574525 90 90 90
-2.045290 1.923344 -0.049006 77 77 77
-1.799982 1.692662 0.662059 92 92 92
-2.026352 1.905535 0.048553 65 65 65
-1.990419 1.871744 0.143191 73 73 73
-1.956537 1.839883 0.234972 78 78 78
-0.851914 0.801120 -0.185218 3 3 3
-1.923341 1.808666 0.324172 76 76 76
-0.912502 0.858096 -0.153799 13 13 13
-1.899537 1.786281 0.412987 70 70 70
-2.133612 2.006400 -0.256238 64 64 64
-1.866427 1.755145 0.498011 90 90 90
-2.098087 1.972993 -0.150937 65 65 65
-1.824236 1.715470 0.578124 92 92 92
-2.056944 1.934303 -0.049286 75 75 75
-1.801390 1.693986 0.662577 95 95 95
-2.015894 1.922395 0.048622 65 65 65
-1.991757 1.899378 0.144238 73 73 73
-1.946528 1.856247 0.235321 82 82 82
-0.864884 0.824770 -0.189286 5 5 5
-1.919287 1.830269 0.325635 85 85 85
-0.910799 0.868556 -0.154530 1 1 1
-1.894168 1.806315 0.414551 63 63 63
-2.131088 2.032246 -0.257632 61 61 61
-1.848445 1.762713 0.496485 84 84 84
-2.092935 1.995863 -0.151565 63 63 63
-1.826318 1.741612 0.582623 84 84 84
-2.054967 1.959656 -0.049565 68 68 68
-1.789520 1.706520 0.662577 87 87 87
-2.017341 1.923775 0.048657 67 67 67
-1.997539 1.904891 0.144657 68 68 68
-1.960947 1.869997 0.237064 85 85 85
-0.869173 0.828860 -0.190224 6 6 6
-1.919287 1.830269 0.325635 82 82 82
-1.907034 1.818584 0.417367 70 70 70
-2.141181 2.041871 -0.258853 59 59 59
-1.854128 1.768133 0.498011 82 82 82
-2.095825 1.998620 -0.151774 63 63 63
-1.834780 1.749681 0.585323 87 87 87
-2.069439 1.973457 -0.049914 72 72 72
-1.800704 1.717186 0.666718 90 90 90
-2.017480 1.949619 0.048971 65 65 65
-1.986297 1.919485 0.144761 66 66 66
-1.957098 1.891268 0.238109 78 78 78
-0.859395 0.830488 -0.189286 4 4 4
-1.915671 1.851234 0.327097 91 91 91
-2.185463 2.111952 -0.373164 83 83 83
-1.903454 1.839429 0.419244 70 70 70
-2.144785 2.072642 -0.260944 59 59 59
-1.856479 1.794033 0.501828 90 90 90
-2.091141 2.020803 -0.152402 63 63 63
-1.820332 1.759103 0.584423 84 84 84
-2.067809 1.998255 -0.050193 68 68 68
-1.797611 1.737146 0.669824 81 81 81
-2.033297 1.964905 0.049355 69 69 69
-1.996351 1.929201 0.145494 71 71 71
-1.968560 1.902344 0.239504 78 78 78
-0.872180 0.842843 -0.192102 4 4 4
-1.927091 1.862270 0.329047 85 85 85
-2.191173 2.117470 -0.374139 65 65 65
-1.900613 1.836683 0.418619 67 67 67
-2.153381 2.080949 -0.261990 66 66 66
-1.870596 1.807676 0.505644 86 86 86
-2.102631 2.031906 -0.153240 63 63 63
-1.831543 1.769937 0.588022 87 87 87
-2.067809 1.998255 -0.050193 70 70 70
-1.814281 1.753255 0.676035 85 85 85
-0.826490 0.809924 -0.310065 0 0 0
-2.028100 1.987449 0.049565 74 74 74
-1.994246 1.954274 0.146331 71 71 71
-1.960923 1.921619 0.240201 78 78 78
-0.870507 0.853059 -0.193040 1 1 1
-1.925385 1.886793 0.330997 85 85 85
-2.189098 2.145220 -0.376333 68 68 68
-1.893388 1.855437 0.419870 65 65 65
-2.144493 2.101509 -0.262687 64 64 64
-1.871953 1.834432 0.509460 90 90 90
-2.099807 2.057719 -0.154077 63 63 63
-1.827493 1.790864 0.590721 87 87 87
-2.059521 2.018241 -0.050333 68 68 68
-1.801997 1.765879 0.676035 83 83 83
-0.805793 0.789642 -0.302301 0 0 0
-2.028100 1.987449 0.049565 69 69 69
-2.002805 1.962661 0.146959 73 73 73
-1.959500 1.920225 0.240027 73 73 73
-0.860631 0.843381 -0.190850 1 1 1
-1.935310 1.896519 0.332703 80 80 80
-2.201858 2.157725 -0.378526 67 67 67
-1.904675 1.866498 0.422373 65 65 65
-2.151608 2.108482 -0.263559 60 60 60
-1.871953 1.834432 0.509460 86 86 86
-2.108366 2.066107 -0.154705 61 61 61
-1.846979 1.809959 0.597020 82 82 82
-2.076660 2.035036 -0.050752 67 67 67
-1.810276 1.773991 0.679141 78 78 78
-0.786558 0.781631 -0.297124 0 0 0
-2.025523 2.012836 0.049844 71 71 71
-2.003221 1.990674 0.148006 73 73 73
-1.965832 1.953519 0.242467 76 76 76
-0.840710 0.835444 -0.187721 1 1 1
-1.927655 1.915581 0.333678 80 80 80
-2.199413 2.185637 -0.380720 68 68 68
-1.900005 1.888104 0.424250 70 70 70
-2.148142 2.134687 -0.264953 59 59 59
-1.861886 1.850224 0.510223 79 79 79
-2.102391 2.089222 -0.155333 63 63 63
-1.842592 1.831051 0.599720 84 84 84
-2.070913 2.057942 -0.050961 70 70 70
-1.808809 1.797480 0.683282 81 81 81
-0.803002 0.797972 -0.303336 0 0 0
-2.041126 2.028341 0.050228 78 78 78
-2.006055 1.993490 0.148215 73 73 73
-1.978551 1.966159 0.244036 70 70 70
-0.843512 0.838229 -0.188347 1 1 1
-1.934695 1.922577 0.334897 82 82 82
-2.200821 2.187036 -0.380964 65 65 65
-1.911214 1.899243 0.426753 67 67 67
-2.160861 2.147326 -0.266522 64 64 64
-1.878597 1.866830 0.514803 82 82 82
-2.110891 2.097669 -0.155961 65 65 65
-1.842592 1.831051 0.599720 84 84 84
-2.073750 2.060761 -0.051031 68 68 68
-1.822513 1.811097 0.688459 75 75 75
-0.808297 0.814529 -0.307477 0 0 0
-2.039593 2.055316 0.050542 74 74 74
-1.994902 2.010281 0.148425 68 68 68
-1.973197 1.988409 0.245082 70 70 70
-0.855729 0.862325 -0.192414 1 1 1
-1.938005 1.952945 0.337822 85 85 85
-2.195287 2.212211 -0.382670 63 63 63
-1.897909 1.912540 0.426753 70 70 70
-2.155641 2.172259 -0.267742 61 61 61
-1.879347 1.893835 0.518619 78 78 78
-2.110263 2.126532 -0.157008 59 59 59
-1.832509 1.846636 0.600619 84 84 84
-2.067764 2.083704 -0.051240 70 70 70
-1.817989 1.832004 0.691564 87 87 87
-0.789247 0.795331 -0.300230 0 0 0
-2.045227 2.060994 0.050682 71 71 71
-2.008971 2.024458 0.149471 73 73 73
-1.973197 1.988409 0.245082 70 70 70
-0.858511 0.865130 -0.193040 5 5 5
-1.942200 1.957173 0.338553 77 77 77
-2.210668 2.227711 -0.385351 65 65 65
-1.906257 1.920953 0.428630 70 70 70
-2.158448 2.175088 -0.268091 61 61 61
-1.887645 1.902197 0.520909 70 70 70
-2.131366 2.147797 -0.158578 56 56 56
-1.848981 1.863235 0.606018 73 73 73
-2.073398 2.089382 -0.051380 67 67 67
-1.817989 1.832004 0.691564 83 83 83
-0.790290 0.807863 -0.302818 0 0 0
-2.033223 2.078435 0.050752 71 71 71
-0.801287 0.819105 -0.264542 1 1 1
-2.008399 2.053059 0.150518 73 73 73
-1.967278 2.011023 0.246128 67 67 67
-0.863350 0.882548 -0.195543 22 22 22
-1.939250 1.982373 0.340503 72 72 72
-2.208552 2.257663 -0.387788 65 65 65
-1.900751 1.943017 0.430508 67 67 67
-2.155367 2.203295 -0.269660 64 64 64
-1.867120 1.908638 0.519000 73 73 73
-2.124322 2.171560 -0.159206 55 55 55
-1.841052 1.881991 0.607818 75 75 75
-2.075174 2.121319 -0.051799 70 70 70
-1.810237 1.850490 0.693635 83 83 83
-0.790290 0.807863 -0.302818 0 0 0
-2.044410 2.089871 0.051031 71 71 71
-0.787660 0.805174 -0.260043 1 1 1
-2.013986 2.058770 0.150937 71 71 71
-1.981210 2.025266 0.247871 67 67 67
-0.871638 0.891020 -0.197420 57 57 57
-1.944803 1.988049 0.341478 72 72 72
-2.223822 2.273272 -0.390469 71 71 71
-1.914564 1.957138 0.433636 67 67 67
-2.163727 2.211841 -0.270706 64 64 64
-1.871239 1.912849 0.520145 76 76 76
-2.127116 2.174415 -0.159415 54 54 54
-1.851954 1.893135 0.611417 77 77 77
-2.086361 2.132754 -0.052078 72 72 72
-1.815640 1.856014 0.695706 80 80 80
-0.791623 0.820036 -0.305406 0 0 0
-2.045782 2.119209 0.051415 65 65 65
-0.785009 0.813185 -0.260943 1 1 1
-2.008611 2.080704 0.151565 73 73 73
-1.981573 2.052695 0.249614 70 70 70
-0.873941 0.905309 -0.199298 86 86 86
-1.938469 2.008044 0.342697 75 75 75
-2.223862 2.303681 -0.393151 107 107 107
-1.918006 1.986847 0.437391 72 72 72
-2.175302 2.253378 -0.274018 68 68 68
-1.874874 1.942167 0.524725 78 78 78
-2.123745 2.199971 -0.160253 53 53 53
-1.839358 1.905376 0.611417 73 73 73
-2.086059 2.160932 -0.052427 75 75 75
-1.814025 1.879134 0.699847 87 87 87
-0.788940 0.817256 -0.304371 0 0 0
-2.062448 2.136474 0.051834 63 63 63
-0.801251 0.830009 -0.266342 1 1 1
-2.019708 2.092199 0.152402 71 71 71
-1.987108 2.058429 0.250311 78 78 78
-0.882173 0.913836 -0.201175 100 100 100
-1.950877 2.020898 0.344890 77 77 77
-2.234892 2.315107 -0.395100 121 121 121
-1.915262 1.984004 0.436765 67 67 67
-2.176686 2.254811 -0.274192 64 64 64
-1.880328 1.947817 0.526251 76 76 76
-2.133455 2.210029 -0.160985 59 59 59
-1.842064 1.908180 0.612317 69 69 69
-2.086059 2.160932 -0.052427 72 72 72
-1.822075 1.887473 0.702953 77 77 77
-0.767231 0.805954 -0.298160 0 0 0
-2.052998 2.156614 0.051973 63 63 63
-0.772595 0.811588 -0.258694 1 1 1
-2.016069 2.117821 0.153240 71 71 71
-1.972689 2.072252 0.250311 68 68 68
-0.879858 0.924264 -0.202113 100 100 100
-1.953146 2.051722 0.347815 72 72 72
-2.203619 2.314837 -0.392419 100 100 100
-1.912260 2.008773 0.439268 65 65 65
-2.174629 2.284383 -0.275935 64 64 64
-1.877513 1.972272 0.529304 78 78 78
-2.128991 2.236442 -0.161823 57 57 57
-1.839447 1.932285 0.615916 73 73 73
-2.081952 2.187029 -0.052706 72 72 72
-1.811518 1.902946 0.703988 80 80 80
-0.761903 0.800357 -0.296089 0 0 0
-2.055755 2.159510 0.052043 65 65 65
-0.782000 0.821468 -0.261843 1 1 1
-2.032594 2.135180 0.154496 68 68 68
-0.762105 0.800569 -0.214851 1 1 1
-1.980931 2.080910 0.251357 68 68 68
-2.176490 2.286338 -0.499965 30 30 30
-1.957252 2.056035 0.348546 80 80 80
-2.209094 2.320588 -0.393394 100 100 100
-1.924518 2.021650 0.442084 63 63 63
-2.180124 2.290155 -0.276632 66 66 66
-1.880220 1.975116 0.530067 84 84 84
-2.140008 2.248015 -0.162660 57 57 57
-1.850196 1.943577 0.619515 73 73 73
-2.094361 2.200065 -0.053020 68 68 68
-1.814182 1.905745 0.705023 77 77 77
-0.752330 0.801431 -0.294536 0 0 0
-2.051578 2.185473 0.052322 61 61 61
-0.770911 0.821224 -0.260043 1 1 1
-2.027207 2.159512 0.155228 64 64 64
-0.775309 0.825909 -0.220194 1 1 1
-1.981356 2.110668 0.253275 73 73 73
-2.155067 2.295716 -0.498713 90 90 90
-1.951002 2.078333 0.350009 83 83 83
-2.190122 2.333059 -0.392907 100 100 100
-1.921174 2.046558 0.444587 63 63 63
-2.183173 2.325656 -0.279073 76 76 76
-1.871761 1.993920 0.531594 78 78 78
-2.132464 2.271637 -0.163288 59 59 59
-1.841918 1.962129 0.621315 73 73 73
-2.092637 2.229212 -0.053369 65 65 65
-1.816700 1.935265 0.711235 83 83 83
-0.768197 0.818333 -0.300748 0 0 0
-2.063896 2.198595 0.052636 75 75 75
-0.785583 0.836853 -0.264992 1 1 1
-2.029941 2.162424 0.155438 66 66 66
-0.764560 0.814458 -0.217141 1 1 1
-1.990901 2.120836 0.254495 70 70 70
-2.149659 2.289956 -0.497462 85 85 85
-1.959154 2.087017 0.351471 80 80 80
-2.173819 2.315691 -0.389982 97 97 97
-1.931989 2.058080 0.447090 58 58 58
-2.207718 2.351804 -0.282210 118 118 118
-1.879823 2.002508 0.533884 76 76 76
-2.137931 2.277462 -0.163707 59 59 59
-1.847253 1.967812 0.623114 75 75 75
-2.103586 2.240875 -0.053649 68 68 68
-1.824633 1.943716 0.714341 81 81 81
-0.763921 0.824960 -0.301265 0 0 0
-2.058394 2.222863 0.052881 73 73 73
-0.760007 0.820733 -0.258244 1 1 1
-2.023317 2.184984 0.156066 61 61 61
-0.764334 0.825406 -0.218667 1 1 1
-1.987249 2.146033 0.255889 70 70 70
-2.138049 2.308883 -0.498400 100 100 100
-1.958390 2.114869 0.353909 80 80 80
-2.158006 2.330434 -0.389982 90 90 90
-1.920620 2.074081 0.447715 58 58 58
-2.199781 2.375548 -0.283256 116 116 116
-1.887491 2.038305 0.539989 82 82 82
-2.135950 2.306616 -0.164754 57 57 57
-1.839112 1.986060 0.624914 75 75 75
-2.096437 2.263945 -0.053858 67 67 67
-1.816610 1.961761 0.716411 83 83 83
-0.744233 0.803698 -0.293501 0 0 0
-2.069263 2.234601 0.053160 73 73 73
-0.765304 0.826453 -0.260043 1 1 1
-2.039602 2.202569 0.157322 84 84 84
-0.775005 0.836930 -0.221720 1 1 1
-1.992664 2.151881 0.256587 67 67 67
-2.138049 2.308883 -0.498400 90 90 90
-1.971878 2.129434 0.356346 80 80 80
-2.162052 2.334804 -0.390713 100 100 100
-1.925989 2.079879 0.448967 56 56 56
-2.183537 2.358005 -0.281164 100 100 100
-1.898163 2.049829 0.543042 79 79 79
-2.149520 2.321271 -0.165800 59 59 59
-1.849704 1.997499 0.628513 79 79 79
-2.101871 2.269814 -0.053998 68 68 68
-1.824486 1.970266 0.719517 81 81 81
-0.748882 0.820418 -0.297642 0 0 0
-2.055916 2.252305 0.053230 70 70 70
-0.760684 0.833347 -0.260493 1 1 1
-2.026481 2.220058 0.157531 66 66 66
-0.753114 0.825054 -0.217141 1 1 1
-1.979901 2.169028 0.256935 68 68 68
-2.108155 2.309534 -0.495272 92 92 92
-1.961943 2.149355 0.357321 75 75 75
-2.142613 2.347283 -0.390226 100 100 100
-1.919047 2.102361 0.450844 57 57 57
-2.166608 2.373570 -0.281164 100 100 100
-1.888740 2.069160 0.544569 84 84 84
-2.149013 2.354294 -0.167056 61 61 61
-1.856384 2.033712 0.635712 73 73 73
-2.101753 2.302520 -0.054417 75 75 75
-1.815550 1.988978 0.721587 81 81 81
-0.743672 0.814711 -0.295571 0 0 0
-2.069397 2.267074 0.053579 70 70 70
-0.752801 0.824711 -0.257794 1 1 1
-2.046679 2.242185 0.159101 76 76 76
-0.758408 0.830854 -0.218667 1 1 1
-1.998706 2.189629 0.259375 67 67 67
-2.102828 2.303698 -0.494020 95 95 95
-1.963281 2.150821 0.357565 77 77 77
-2.138598 2.342885 -0.389494 97 97 97
-1.932364 2.116951 0.453973 58 58 58
-2.161235 2.367684 -0.280467 93 93 93
-1.894034 2.074960 0.546095 78 78 78
-2.154399 2.360195 -0.167475 71 71 71
-1.872149 2.050984 0.641111 82 82 82
-2.120627 2.323197 -0.054905 70 70 70
-1.828574 2.003246 0.726764 85 85 85
-0.735524 0.816882 -0.294536 0 0 0
-2.065961 2.294482 0.053893 75 75 75
-0.740650 0.822575 -0.255544 1 1 1
-2.034042 2.259033 0.159311 76 76 76
-0.763244 0.847669 -0.221720 1 1 1
-2.003753 2.225393 0.261990 68 68 68
-2.087099 2.317958 -0.494020 97 97 97
-1.959222 2.175936 0.359515 77 77 77
-2.111975 2.345586 -0.387545 93 93 93
-1.928484 2.141799 0.456476 60 60 60
-2.142402 2.379379 -0.280119 91 91 91
-1.890376 2.099476 0.549148 76 76 76
-2.152984 2.391131 -0.168626 115 115 115
-1.852930 2.057887 0.639311 73 73 73
-2.112793 2.346494 -0.055115 75 75 75
-1.830408 2.032874 0.732976 81 81 81
-0.744573 0.826932 -0.298160 0 0 0
-2.079341 2.309342 0.054242 75 75 75
-0.744562 0.826920 -0.256894 1 1 1
-2.044734 2.270907 0.160148 76 76 76
-0.744853 0.827243 -0.216377 1 1 1
-2.010418 2.232796 0.262862 72 72 72
-2.081811 2.312086 -0.492769 95 95 95
-1.971176 2.189213 0.361708 75 75 75
-2.107990 2.341160 -0.386813 86 86 86
-1.928484 2.141799 0.456476 60 60 60
-2.139736 2.376417 -0.279770 91 91 91
-1.906140 2.116983 0.553728 73 73 73
-2.163676 2.403005 -0.169464 103 103 103
-1.860753 2.066576 0.642010 73 73 73
-2.116807 2.350952 -0.055219 75 75 75
-1.835579 2.038617 0.735046 77 77 77
-0.718401 0.808870 -0.289877 0 0 0
-2.075525 2.336899 0.054556 70 70 70
-0.740210 0.833426 -0.257344 1 1 1
-2.039839 2.296719 0.160985 76 76 76
-0.739205 0.832294 -0.216377 1 1 1
-1.996497 2.247918 0.263036 71 71 71
-2.068649 2.329156 -0.493394 97 97 97
-1.970730 2.218906 0.364389 72 72 72
-2.086733 2.349517 -0.385838 86 86 86
-1.924355 2.166691 0.458979 61 61 61
-2.112926 2.379010 -0.278375 93 93 93
-1.902116 2.141652 0.556781 70 70 70
-2.149921 2.420664 -0.169673 90 90 90
-1.862172 2.096678 0.647409 75 75 75
-2.110051 2.375772 -0.055464 70 70 70
-1.824226 2.053953 0.736081 73 73 73
-0.714553 0.804537 -0.288324 0 0 0
-2.078181 2.339889 0.054626 73 73 73
-0.736328 0.829055 -0.255994 1 1 1
-2.053102 2.311652 0.162032 73 73 73
-0.741812 0.835230 -0.217141 1 1 1
-2.009727 2.262815 0.264779 65 65 65
-2.058155 2.317341 -0.490891 100 100 100
-1.977321 2.226327 0.365608 71 71 71
-2.088051 2.351002 -0.386082 93 93 93
-1.934849 2.178507 0.461482 58 58 58
-2.110280 2.376030 -0.278027 93 93 93
-1.902116 2.141652 0.556781 65 65 65
-2.144616 2.414690 -0.169254 90 90 90
-1.869937 2.105420 0.650109 75 75 75
-2.128642 2.396704 -0.055952 75 75 75
-1.834488 2.065508 0.740222 83 83 83
-0.728010 0.831306 -0.296089 0 0 0
-2.073652 2.367879 0.054940 75 75 75
-0.725387 0.828311 -0.254195 1 1 1
-2.051388 2.342457 0.163184 70 70 70
-0.746311 0.852204 -0.220194 1 1 1
-2.005695 2.290280 0.266348 67 67 67
-2.036721 2.325709 -0.489640 97 97 97
-1.968269 2.247544 0.366827 68 68 68
-2.070279 2.364028 -0.385838 86 86 86
-1.937813 2.212767 0.465862 58 58 58
-2.091016 2.387707 -0.277678 88 88 88
-1.889705 2.157833 0.557544 67 67 67
-2.115864 2.416081 -0.168312 85 85 85
-1.868032 2.133084 0.654608 67 67 67
-2.123715 2.425046 -0.056267 100 100 100
-1.832751 2.092798 0.745399 73 73 73
-0.720373 0.822586 -0.292983 0 0 0
-2.085509 2.381419 0.055254 68 68 68
-0.707413 0.807786 -0.247896 1 1 1
-2.051388 2.342457 0.163184 70 70 70
-0.741137 0.846296 -0.218667 1 1 1
-2.022759 2.309765 0.268614 75 75 75
-2.034118 2.322736 -0.489014 100 100 100
-1.973500 2.253518 0.367802 66 66 66
-2.055893 2.347601 -0.383157 97 97 97
-1.948225 2.224655 0.468365 60 60 60
-2.091016 2.387707 -0.277678 88 88 88
-1.900053 2.169649 0.560597 68 68 68
-2.115864 2.416081 -0.168312 85 85 85
-1.865464 2.130152 0.653708 67 67 67
-2.134254 2.437081 -0.056546 110 110 110
-1.845479 2.107331 0.750575 73 73 73
-0.717138 0.830519 -0.294018 0 0 0
-2.084516 2.414083 0.055673 68 68 68
-0.718313 0.831880 -0.253745 1 1 1
-2.045427 2.368814 0.164021 68 68 68
-0.730078 0.845506 -0.217141 1 1 1
-2.017002 2.335895 0.270008 75 75 75
-2.020435 2.339871 -0.489640 100 100 100
-1.969396 2.280763 0.369995 71 71 71
-2.039454 2.361896 -0.383157 97 97 97
-1.940392 2.247173 0.470242 67 67 67
-2.069087 2.396215 -0.276981 91 91 91
-1.898974 2.199206 0.564795 73 73 73
-2.098945 2.430793 -0.168312 85 85 85
-1.860736 2.154923 0.657307 66 66 66
-2.122416 2.457975 -0.056685 108 108 108
-1.838297 2.128937 0.753681 70 70 70
-0.717138 0.830519 -0.294018 0 0 0
-2.105426 2.438299 0.056232 78 78 78
-0.719586 0.833355 -0.254195 1 1 1
-2.062396 2.388466 0.165382 64 64 64
-0.740343 0.857393 -0.220194 1 1 1
-2.018304 2.337403 0.270183 70 70 70
-2.019144 2.338376 -0.489327 100 100 100
-1.987559 2.301797 0.373408 77 77 77
-2.042049 2.364901 -0.383645 97 97 97
-1.942974 2.250163 0.470868 65 65 65
-2.061274 2.387167 -0.275935 95 95 95
-1.907955 2.209608 0.567466 68 68 68
-2.096334 2.427770 -0.168103 85 85 85
-1.865830 2.160823 0.659107 64 64 64
-2.121109 2.456462 -0.056651 101 101 101
-1.837035 2.127475 0.753163 73 73 73
-0.698799 0.820796 -0.288842 0 0 0
-2.094834 2.460551 0.056406 83 83 83
-0.713751 0.838358 -0.254195 1 1 1
-2.057324 2.416493 0.166324 68 68 68
-0.736885 0.865530 -0.220957 1 1 1
-2.013561 2.365089 0.271752 75 75 75
-1.992526 2.340382 -0.486824 100 100 100
-1.983023 2.329220 0.375601 74 74 74
-2.022915 2.376077 -0.383157 97 97 97
-1.947707 2.287738 0.475874 64 64 64
-2.039392 2.395431 -0.275238 93 93 93
-1.897574 2.228853 0.568992 68 68 68
-2.076745 2.439304 -0.167894 83 83 83
-1.864596 2.190118 0.664056 67 67 67
-2.106501 2.474255 -0.056720 100 100 100
-1.830904 2.150544 0.756787 70 70 70
-0.703808 0.826680 -0.290913 0 0 0
-2.109093 2.477300 0.056790 100 100 100
-0.711225 0.835391 -0.253295 1 1 1
-2.072861 2.434742 0.167580 70 70 70
-0.743248 0.873005 -0.222865 1 1 1
-2.025185 2.378743 0.273320 70 70 70
-1.983562 2.329853 -0.484634 100 100 100
-1.983023 2.329220 0.375601 74 74 74
-2.020341 2.373054 -0.382670 97 97 97
-1.957951 2.299771 0.478377 63 63 63
-2.036809 2.392396 -0.274889 93 93 93
-1.902664 2.234833 0.570519 70 70 70
-2.066387 2.427138 -0.167056 87 87 87
-1.873439 2.200505 0.667205 67 67 67
-2.094834 2.460551 -0.056406 100 100 100
-1.835913 2.156428 0.758857 67 67 67
-0.700504 0.834532 -0.291948 0 0 0
-2.108461 2.511875 0.057244 117 117 117
-0.705375 0.840335 -0.253295 1 1 1
-2.058381 2.452213 0.167789 70 70 70
-0.743446 0.885691 -0.224773 3 3 3
-2.023900 2.411136 0.275412 70 70 70
-1.972328 2.349696 -0.485885 100 100 100
-1.976924 2.355171 0.377551 74 74 74
-1.993515 2.374937 -0.380720 97 97 97
-1.949468 2.322462 0.480254 63 63 63
-2.022619 2.409610 -0.275238 91 91 91
-1.899638 2.263098 0.574335 76 76 76
-2.044256 2.435386 -0.166638 83 83 83
-1.860537 2.216515 0.668105 66 66 66
-2.072463 2.468989 -0.056267 100 100 100
-1.836960 2.188428 0.765587 76 76 76
-0.705472 0.840451 -0.294018 0 0 0
-2.107175 2.510343 0.057209 119 119 119
-0.695352 0.828395 -0.249696 1 1 1
-2.075074 2.472100 0.169150 76 76 76
-0.744709 0.887195 -0.225155 4 4 4
-2.032867 2.421818 0.276632 66 66 66
-1.971058 2.348183 -0.485573 100 100 100
-1.990963 2.371896 0.380232 77 77 77
-1.989686 2.370376 -0.379989 100 100 100
-1.955818 2.330027 0.481818 58 58 58
-2.020057 2.406558 -0.274889 95 95 95
-1.914785 2.281143 0.578914 75 75 75
-2.044256 2.435386 -0.166638 83 83 83
-1.873065 2.231441 0.672604 66 66 66
-2.059606 2.453673 -0.055918 100 100 100
-1.845654 2.198786 0.769210 72 72 72
-0.694954 0.839160 -0.291948 0 0 0
-2.085378 2.518103 0.057069 118 118 118
-0.694814 0.838992 -0.251495 1 1 1
-2.071372 2.501191 0.170197 76 76 76
-0.751330 0.907235 -0.228971 6 6 6
-2.021843 2.441385 0.277330 65 65 65
-1.952921 2.358161 -0.484947 100 100 100
-1.987849 2.400337 0.382670 71 71 71
-1.973922 2.383519 -0.379989 100 100 100
-1.946622 2.350554 0.483382 58 58 58
-1.992615 2.406092 -0.273320 99 99 99
-1.917145 2.314961 0.584257 75 75 75
-2.025511 2.445814 -0.166428 85 85 85
-1.869411 2.257323 0.676653 75 75 75
-2.043288 2.467279 -0.055918 100 100 100
-1.834728 2.215442 0.770763 71 71 71
-0.682632 0.824281 -0.286772 0 0 0
-2.077725 2.508862 0.056860 110 110 110
-0.708487 0.855501 -0.256444 1 1 1
-2.087933 2.521188 0.171557 93 93 93
-0.756339 0.913283 -0.230497 9 9 9
-2.030739 2.452127 0.278550 63 63 63
-1.941582 2.344469 -0.482131 100 100 100
-1.997979 2.412568 0.384620 77 77 77
-1.973922 2.383519 -0.379989 100 100 100
-1.959221 2.365768 0.486511 60 60 60
-1.990073 2.403023 -0.272972 99 99 99
-1.914640 2.311937 0.583494 75 75 75
-2.022963 2.442737 -0.166219 87 87 87
-1.885570 2.276834 0.682501 71 71 71
-2.043288 2.467279 -0.055918 100 100 100
-1.844585 2.227345 0.774904 71 71 71
-0.693966 0.849977 -0.294018 0 0 0
-2.048777 2.509365 0.056546 100 100 100
-0.691405 0.846841 -0.252395 3 3 3
-2.080386 2.548080 0.172395 106 106 106
-0.763603 0.935269 -0.234695 9 9 9
-2.028691 2.484764 0.280641 63 63 63
-1.923918 2.356436 -0.481818 100 100 100
-1.987364 2.434146 0.385838 68 68 68
-1.958489 2.398780 -0.380232 97 97 97
-1.957649 2.397750 0.490266 60 60 60
-1.974509 2.418401 -0.273146 93 93 93
-1.908386 2.337413 0.586547 72 72 72
-1.993229 2.441330 -0.165172 85 85 85
-1.881953 2.305038 0.687001 67 67 67
-2.026013 2.481484 -0.055918 100 100 100
-1.837543 2.250643 0.778528 81 81 81
-0.701296 0.858956 -0.297124 0 0 0
-2.051307 2.512463 0.056616 100 100 100
-0.685243 0.839293 -0.250146 4 4 4
-2.076596 2.543439 0.172081 119 119 119
-0.776019 0.950477 -0.238511 5 5 5
-2.042552 2.501741 0.282559 66 66 66
-1.923918 2.356436 -0.481818 100 100 100
-1.994897 2.443372 0.387301 68 68 68
-1.949701 2.388016 -0.378526 100 100 100
-1.971391 2.414582 0.493707 68 68 68
-1.975769 2.419944 -0.273320 99 99 99
-1.923286 2.355662 0.591126 68 68 68
-1.990703 2.438236 -0.164963 87 87 87
-1.881953 2.305038 0.687001 67 67 67
-2.023484 2.478386 -0.055848 100 100 100
-1.861978 2.280572 0.788880 81 81 81
-0.692710 0.860942 -0.296089 0 0 0
-2.037036 2.531752 0.056720 100 100 100
-0.679220 0.844175 -0.250146 1 1 1
-2.054587 2.553565 0.171767 114 114 114
-0.743353 0.923884 -0.230497 3 3 3
-2.043332 2.539577 0.285174 67 67 67
-1.905768 2.368604 -0.481505 100 100 100
-1.992295 2.476144 0.390226 64 64 64
-1.927585 2.395720 -0.377551 100 100 100
-1.952824 2.427088 0.493394 60 60 60
-1.948410 2.421602 -0.271926 99 99 99
-1.916226 2.381601 0.594179 65 65 65
-1.973205 2.452418 -0.164963 85 85 85
-1.875184 2.330592 0.690600 66 66 66
-1.998176 2.483454 -0.055638 100 100 100
-1.850455 2.299858 0.790951 79 79 79
-0.696343 0.865457 -0.297642 0 0 0
-2.035783 2.530194 0.056685 102 102 102
-0.687771 0.854803 -0.253295 1 1 1
-2.057091 2.556677 0.171976 107 107 107
-0.737199 0.916236 -0.228589 1 1 1
-2.052075 2.550443 0.286394 75 75 75
-1.903291 2.365526 -0.480880 97 97 97
-2.010961 2.499344 0.393882 71 71 71
-1.927585 2.395720 -0.377551 100 100 100
-1.962731 2.439400 0.495897 64 64 64
-1.940916 2.412288 -0.270880 99 99 99
-1.930994 2.399957 0.598759 68 68 68
-1.970701 2.449306 -0.164754 87 87 87
-1.884957 2.342738 0.694199 65 65 65
-1.990654 2.474106 -0.055429 100 100 100
-1.852878 2.302868 0.791986 70 70 70
-0.719254 0.906497 -0.310065 0 0 0
-2.011055 2.534593 0.056476 106 106 106
-0.684359 0.862518 -0.254195 1 1 1
-2.035916 2.565926 0.171662 100 100 100
-2.044575 2.576838 0.287788 100 100 100
-1.879779 2.369142 -0.479002 100 100 100
-1.997603 2.517639 0.394613 68 68 68
-1.911234 2.408785 -0.377551 100 100 100
-1.968181 2.480558 0.501529 63 63 63
-1.919498 2.419200 -0.270183 99 99 99
-1.917054 2.416121 0.599522 67 67 67
-1.952742 2.461099 -0.164649 90 90 90
-1.885924 2.376886 0.700498 66 66 66
-1.973768 2.487598 -0.055429 100 100 100
-1.846766 2.327534 0.796127 70 70 70
-0.726459 0.915577 -0.313171 0 0 0
-2.001112 2.522061 0.056197 102 102 102
-0.707373 0.891523 -0.262743 1 1 1
-2.038399 2.569055 0.171871 100 100 100
-1.856041 2.339223 -0.580441 81 81 81
-2.063150 2.600250 0.290403 120 120 120
-1.881007 2.370689 -0.479315 100 100 100
-2.005006 2.526969 0.396075 66 66 66
-1.911234 2.408785 -0.377551 100 100 100
-1.980460 2.496032 0.504658 63 63 63
-1.918259 2.417639 -0.270008 93 93 93
-1.926817 2.428424 0.602575 72 72 72
-1.944052 2.450146 -0.163916 85 85 85
-1.893192 2.386046 0.703197 66 66 66
-1.973768 2.487598 -0.055429 100 100 100
-1.856372 2.339641 0.800268 71 71 71
-0.705609 0.902489 -0.306959 0 0 0
-1.987940 2.542618 0.056336 102 102 102
-0.672168 0.859717 -0.251945 1 1 1
-2.001511 2.559974 0.170301 100 100 100
-1.839254 2.352445 -0.580441 96 96 96
-2.042036 2.611808 0.290054 113 113 113
-1.857911 2.376307 -0.477751 100 100 100
-1.991763 2.547507 0.397050 66 66 66
-1.884167 2.409889 -0.375601 100 100 100
-1.967415 2.516365 0.505909 63 63 63
-1.904592 2.436013 -0.270531 99 99 99
-1.919064 2.454523 0.605628 72 72 72
-1.922779 2.459275 -0.163602 90 90 90
-1.880870 2.405673 0.704997 65 65 65
-1.954685 2.500083 -0.055394 100 100 100
-1.849101 2.365040 0.804410 71 71 71
-0.693711 0.887270 -0.301783 1 1 1
-1.987940 2.542618 0.056336 102 102 102
-0.715379 0.914985 -0.268142 1 1 1
-2.008892 2.569415 0.170929 100 100 100
-1.831999 2.343165 -0.578151 100 100 100
-2.032219 2.599251 0.288660 100 100 100
-1.859128 2.377864 -0.478064 100 100 100
-2.016217 2.578784 0.401925 79 79 79
-1.882944 2.408325 -0.375358 100 100 100
-1.977148 2.528814 0.508412 59 59 59
-1.905819 2.437583 -0.270706 95 95 95
-1.931156 2.469990 0.609444 72 72 72
-1.919088 2.454554 -0.163288 87 87 87
-1.888072 2.414884 0.707696 67 67 67
-1.946063 2.489056 -0.055150 100 100 100
-1.858621 2.377215 0.808551 74 74 74
-0.687499 0.892092 -0.301783 1 1 1
-1.967700 2.553266 0.056267 102 102 102
-1.988467 2.580213 0.170720 100 100 100
-1.813199 2.352787 -0.577388 100 100 100
-2.006726 2.603906 0.287614 100 100 100
-1.842482 2.390785 -0.478064 100 100 100
-2.019976 2.621099 0.406312 85 85 85
-1.862450 2.416695 -0.374626 100 100 100
-1.965475 2.550379 0.509976 55 55 55
-1.877809 2.436625 -0.269137 99 99 99
-1.928247 2.502072 0.614023 75 75 75
-1.899467 2.464728 -0.163079 85 85 85
-1.883063 2.443442 0.712195 67 67 67
-1.923756 2.496245 -0.055010 100 100 100
-1.851413 2.402374 0.812692 70 70 70
-0.689858 0.895152 -0.302818 1 1 1
-1.956714 2.539011 0.055952 100 100 100
-0.739902 0.960089 -0.279839 1 1 1
-1.986028 2.577049 0.170511 100 100 100
-1.810802 2.349677 -0.576625 100 100 100
-1.999429 2.594438 0.286568 98 98 98
-1.828012 2.372009 -0.474309 100 100 100
-2.030882 2.635251 0.408506 100 100 100
-1.862450 2.416695 -0.374626 100 100 100
-1.977533 2.566025 0.513105 55 55 55
-1.871728 2.428734 -0.268265 93 93 93
-1.940231 2.517623 0.617840 72 72 72
-1.901906 2.467892 -0.163288 87 87 87
-1.897337 2.461965 0.717594 65 65 65
-1.923756 2.496245 -0.055010 100 100 100
-1.858489 2.411555 0.815798 71 71 71
-0.671046 0.882790 -0.297124 2 2 2
-1.938621 2.550340 0.055918 106 106 106
-0.683988 0.899816 -0.260943 1 1 1
-1.971310 2.593344 0.170720 100 100 100
-1.790426 2.355383 -0.575098 100 100 100
-1.982178 2.607641 0.286568 96 96 96
-1.815827 2.388798 -0.475248 100 100 100
-2.018165 2.654983 0.409481 108 108 108
-1.843978 2.425833 -0.374139 100 100 100
-1.976011 2.599528 0.517172 58 58 58
-1.859196 2.445853 -0.268788 100 100 100
-1.925867 2.533561 0.618603 72 72 72
-1.875827 2.467732 -0.162451 85 85 85
-1.895119 2.493111 0.722993 67 67 67
-1.905948 2.507357 -0.054975 100 100 100
-1.855314 2.440745 0.821492 78 78 78
-0.669877 0.881252 -0.296607 2 2 2
-1.934991 2.545564 0.055813 100 100 100
-0.693422 0.912227 -0.264542 1 1 1
-1.959224 2.577444 0.169673 100 100 100
-1.790426 2.355383 -0.575098 100 100 100
-1.993030 2.621917 0.288137 100 100 100
-1.813436 2.385653 -0.474622 100 100 100
-2.018165 2.654983 0.409481 100 100 100
-1.840374 2.421092 -0.373408 100 100 100
-1.993943 2.623118 0.521865 64 64 64
-1.859196 2.445853 -0.268788 99 99 99
-1.942500 2.555443 0.623945 67 67 67
-1.879453 2.472502 -0.162765 90 90 90
-1.895119 2.493111 0.722993 66 66 66
-1.907158 2.508949 -0.055010 100 100 100
-1.865835 2.454587 0.826150 70 70 70
-0.666025 0.888999 -0.297642 2 2 2
-1.915974 2.557411 0.055778 102 102 102
-0.687037 0.917046 -0.264542 1 1 1
-1.938787 2.587862 0.169464 100 100 100
-1.766876 2.358398 -0.572809 100 100 100
-1.972287 2.632577 0.287788 97 97 97
-1.794368 2.395093 -0.473996 100 100 100
-2.003151 2.673774 0.410212 100 100 100
-1.818666 2.427526 -0.372433 100 100 100
-1.974397 2.635393 0.521553 65 65 65
-1.838492 2.453990 -0.268265 95 95 95
-1.938738 2.587796 0.628525 68 68 68
-1.856158 2.477570 -0.162241 85 85 85
-1.891689 2.524996 0.728392 67 67 67
-1.882402 2.512600 -0.054801 100 100 100
-1.862553 2.486106 0.832362 71 71 71
-0.677608 0.904460 -0.302818 5 5 5
-1.917173 2.559011 0.055813 100 100 100
-0.698721 0.932642 -0.269041 1 1 1
-1.938787 2.587862 0.169464 100 100 100
-1.766876 2.358398 -0.572809 100 100 100
-1.962731 2.619821 0.286394 97 97 97
-1.797921 2.399836 -0.474935 100 100 100
-1.994820 2.662653 0.408506 100 100 100
-1.818666 2.427526 -0.372433 100 100 100
-1.988610 2.654364 0.525307 70 70 70
-1.827741 2.439639 -0.266697 99 99 99
-1.952863 2.606651 0.633104 65 65 65
-1.858553 2.480767 -0.162451 87 87 87
-1.905710 2.543711 0.733790 63 63 63
-1.877606 2.506198 -0.054661 100 100 100
-1.864870 2.489198 0.833397 68 68 68
-0.664392 0.899844 -0.299712 6 6 6
-1.887383 2.556246 0.055464 100 100 100
-0.706084 0.956310 -0.274440 1 1 1
-1.920674 2.601334 0.169464 100 100 100
-1.755033 2.376993 -0.574335 100 100 100
-1.939659 2.627048 0.285697 100 100 100
-1.774083 2.402794 -0.473058 100 100 100
-1.971466 2.670127 0.407531 100 100 100
-1.800496 2.438567 -0.372189 97 97 97
-1.989977 2.695198 0.530626 100 100 100
-1.808298 2.449133 -0.266348 99 99 99
-1.939283 2.626538 0.634631 63 63 63
-1.837630 2.488861 -0.162137 90 90 90
-1.897165 2.569495 0.737390 63 63 63
-1.857689 2.516028 -0.054591 100 100 100
-1.858922 2.517698 0.838574 71 71 71
-0.672425 0.910723 -0.303336 6 6 6
-1.882632 2.549811 0.055324 100 100 100
-0.706084 0.956310 -0.274440 1 1 1
-1.915928 2.594907 0.169045 100 100 100
-1.748037 2.367517 -0.572045 100 100 100
-1.937293 2.623843 0.285348 100 100 100
-1.768217 2.394849 -0.471493 100 100 100
-1.959675 2.654157 0.405094 96 96 96
-1.799316 2.436970 -0.371945 100 100 100
-1.995844 2.703144 0.532190 102 102 102
-1.813031 2.455545 -0.267045 100 100 100
-1.946280 2.636014 0.636920 67 67 67
-1.831699 2.480828 -0.161613 83 83 83
-1.913371 2.591443 0.743688 61 61 61
-1.856501 2.514419 -0.054556 100 100 100
-1.872691 2.536348 0.844785 68 68 68
-0.685208 0.942071 -0.312136 0 0 0
-1.864338 2.563217 0.055324 92 92 92
-0.699222 0.961338 -0.274440 1 1 1
-1.890262 2.598859 0.168417 100 100 100
-1.731050 2.379965 -0.572045 100 100 100
-1.923155 2.644083 0.286045 100 100 100
-1.752196 2.409038 -0.471806 100 100 100
-1.938297 2.664901 0.404606 100 100 100
-1.772491 2.436940 -0.369995 100 100 100
-1.976450 2.717356 0.532190 100 100 100
-1.791898 2.463622 -0.266522 95 95 95
-1.941225 2.668927 0.641500 68 68 68
-1.809200 2.487411 -0.161195 87 87 87
-1.898217 2.609796 0.745038 60 60 60
-1.841989 2.532491 -0.054661 100 100 100
-1.865857 2.565307 0.849962 66 66 66
-0.732934 1.007687 -0.333877 0 0 0
-1.864338 2.563217 0.055324 100 100 100
-1.712521 2.354490 -0.672154 1 1 1
-1.887912 2.595629 0.168208 100 100 100
-1.724122 2.370439 -0.569756 100 100 100
-1.916123 2.634416 0.284999 97 97 97
-1.751034 2.407440 -0.471493 97 97 97
-1.938297 2.664901 0.404606 96 96 96
-1.768988 2.432124 -0.369264 100 100 100
-1.965992 2.702979 0.529374 92 92 92
-1.793070 2.465233 -0.266697 100 100 100
-1.955082 2.687979 0.646079 71 71 71
-1.809200 2.487411 -0.161195 85 85 85
-1.903948 2.617676 0.747287 62 62 62
-1.830227 2.516319 -0.054312 100 100 100
-1.879493 2.584054 0.856173 66 66 66
-0.735242 1.025085 -0.338018 0 0 0
-1.848463 2.577151 0.055359 100 100 100
-0.716683 0.999208 -0.283888 1 1 1
-1.866000 2.601601 0.167789 100 100 100
-1.706074 2.378631 -0.568992 100 100 100
-1.893964 2.640590 0.284302 100 100 100
-1.735029 2.419001 -0.471493 100 100 100
-1.925208 2.684150 0.405581 100 100 100
-1.756289 2.448642 -0.369995 100 100 100
-1.941114 2.706327 0.527497 88 88 88
-1.766229 2.462500 -0.265128 95 95 95
-1.954376 2.724816 0.651804 96 96 96
-1.794992 2.502601 -0.161404 87 87 87
-1.900175 2.649248 0.752686 65 65 65
-1.811167 2.525153 -0.054242 100 100 100
-1.864566 2.599602 0.857209 63 63 63
-0.725109 1.010956 -0.333359 0 0 0
-1.840304 2.565776 0.055115 100 100 100
-0.724633 1.010293 -0.287038 1 1 1
-1.866000 2.601601 0.167789 100 100 100
-1.706074 2.378631 -0.568992 100 100 100
-1.886997 2.630876 0.283256 100 100 100
-1.728121 2.409369 -0.469616 100 100 100
-1.918266 2.674472 0.404119 96 96 96
-1.759760 2.453481 -0.370727 100 100 100
-1.945720 2.712748 0.528748 88 88 88
-1.766229 2.462500 -0.265128 95 95 95
-1.957808 2.729602 0.652948 105 105 105
-1.793827 2.500978 -0.161299 93 93 93
-1.916076 2.671418 0.758985 63 63 63
-1.815829 2.531652 -0.054382 100 100 100
-1.873573 2.612161 0.861350 68 68 68
-0.718971 1.017697 -0.333877 0 0 0
-1.816128 2.570713 0.054940 100 100 100
-1.849640 2.618150 0.167998 100 100 100
-1.689009 2.390778 -0.568992 100 100 100
-1.870422 2.647566 0.283605 100 100 100
-1.707417 2.416834 -0.468678 99 99 99
-1.885334 2.668674 0.401194 96 96 96
-1.730705 2.449798 -0.368289 100 100 100
-1.926258 2.726601 0.528748 92 92 92
-1.746264 2.471821 -0.264779 93 93 93
-1.940491 2.746749 0.653712 102 102 102
-1.765513 2.499069 -0.160357 87 87 87
-1.908155 2.700976 0.763484 65 65 65
-1.794205 2.539682 -0.054277 100 100 100
-1.865980 2.641279 0.866526 66 66 66
-0.713397 1.009808 -0.331288 0 0 0
-1.816128 2.570713 0.054940 100 100 100
-1.665278 2.357187 -0.666305 82 82 82
-1.838116 2.601837 0.166952 100 100 100
-1.684478 2.384364 -0.567466 100 100 100
-1.868123 2.644312 0.283256 100 100 100
-1.710836 2.421674 -0.469616 100 100 100
-1.885334 2.668674 0.401194 100 100 100
-1.727269 2.444934 -0.367558 100 100 100
-1.921699 2.720148 0.527497 88 88 88
-1.748563 2.475076 -0.265128 100 100 100
-1.940491 2.746749 0.653712 100 100 100
-1.763208 2.495806 -0.160148 87 87 87
-1.914901 2.710526 0.766183 62 62 62
-1.789590 2.533149 -0.054137 100 100 100
-1.883815 2.666524 0.874808 66 66 66
-1.799279 2.584971 0.054975 100 100 100
-1.649895 2.370355 -0.666755 92 92 92
-1.817625 2.611328 0.166742 100 100 100
-1.665548 2.392843 -0.566703 100 100 100
-1.847340 2.654018 0.282908 100 100 100
-1.688246 2.425452 -0.468052 91 91 91
-1.867792 2.683401 0.401438 100 100 100
-1.707890 2.453674 -0.367070 100 100 100
-1.893634 2.720527 0.524994 86 86 86
-1.730103 2.485587 -0.264953 99 99 99
-1.925755 2.766674 0.655238 100 100 100
-1.748024 2.511333 -0.160357 87 87 87
-1.909291 2.743022 0.771582 67 67 67
-1.766149 2.537374 -0.053963 100 100 100
-1.876190 2.695466 0.879985 67 67 67
-1.623456 2.332371 -0.761446 79 79 79
-1.798137 2.583329 0.054940 100 100 100
-1.649895 2.370355 -0.666755 85 85 85
-1.819907 2.614606 0.166952 100 100 100
-1.661062 2.386398 -0.565176 100 100 100
-1.842787 2.647477 0.282210 97 97 97
-1.692760 2.431937 -0.469303 100 100 100
-1.873462 2.691547 0.402656 100 100 100
-1.710158 2.456933 -0.367558 100 100 100
-1.889120 2.714042 0.523743 86 86 86
-1.724412 2.477411 -0.264082 93 93 93
-1.923512 2.763452 0.654475 100 100 100
-1.751447 2.516251 -0.160671 90 90 90
-1.923764 2.763814 0.777431 77 77 77
-1.762722 2.532451 -0.053858 100 100 100
-1.887226 2.711322 0.885161 67 67 67
-1.608636 2.344960 -0.761963 92 92 92
-1.773724 2.585615 0.054731 100 100 100
-1.632620 2.379923 -0.666305 93 93 93
-1.799808 2.623639 0.166742 100 100 100
-1.644780 2.397649 -0.565176 100 100 100
-1.816834 2.648459 0.280990 95 95 95
-1.666110 2.428743 -0.466488 85 85 85
-1.848360 2.694415 0.401194 100 100 100
-1.693394 2.468516 -0.367558 100 100 100
-1.875072 2.733354 0.524994 92 92 92
-1.698492 2.475947 -0.262687 95 95 95
-1.897993 2.766767 0.652185 100 100 100
-1.730889 2.523173 -0.160357 87 87 87
-1.918135 2.796128 0.782830 102 102 102
-1.746575 2.546039 -0.053893 100 100 100
-1.879656 2.740035 0.890338 66 66 66
-1.609728 2.346554 -0.762481 91 91 91
-1.768068 2.577370 0.054556 100 100 100
-1.623801 2.367067 -0.662706 93 93 93
-1.797549 2.620345 0.166533 100 100 100
-1.647001 2.400887 -0.565939 100 100 100
-1.820216 2.653388 0.281513 97 97 97
-1.663875 2.425485 -0.465862 95 95 95
-1.839377 2.681319 0.399244 100 100 100
-1.691149 2.465242 -0.367070 100 100 100
-1.872837 2.730096 0.524368 86 86 86
-1.703000 2.482519 -0.263385 95 95 95
-1.889109 2.753815 0.649132 96 96 96
-1.724110 2.513292 -0.159729 85 85 85
-1.926954 2.808984 0.786429 100 100 100
-1.748837 2.549337 -0.053963 100 100 100
-1.894955 2.762338 0.897584 66 66 66
-1.587899 2.349731 -0.759893 88 88 88
-1.751151 2.591307 0.054591 102 102 102
-1.606145 2.376731 -0.662256 96 96 96
-1.772502 2.622902 0.165905 100 100 100
-1.625802 2.405820 -0.564413 100 100 100
-1.801647 2.666030 0.281513 97 97 97
-1.648008 2.438678 -0.466175 100 100 100
-1.816167 2.687516 0.398269 93 93 93
-1.665005 2.463831 -0.365121 97 97 97
-1.853732 2.743104 0.524368 88 88 88
-1.683397 2.491046 -0.263036 88 88 88
-1.867639 2.763683 0.648369 93 93 93
-1.702049 2.518648 -0.159311 79 79 79
-1.897477 2.807837 0.782380 93 93 93
-1.730997 2.561484 -0.053963 100 100 100
-1.886441 2.791506 0.902761 63 63 63
-1.590062 2.352932 -0.760928 88 88 88
-1.750031 2.589651 0.054556 100 100 100
-1.605054 2.375117 -0.661806 93 93 93
-1.770265 2.619592 0.165696 100 100 100
-1.619207 2.396060 -0.562123 100 100 100
-1.799416 2.662729 0.281164 97 97 97
-1.650220 2.441952 -0.466800 99 99 99
-1.813944 2.684227 0.397782 100 100 100
-1.659447 2.455607 -0.363902 87 87 87
-1.842672 2.726737 0.521240 83 83 83
-1.690090 2.500951 -0.264082 100 100 100
-1.869838 2.766937 0.649132 96 96 96
-1.704286 2.521957 -0.159520 79 79 79
-1.897477 2.807837 0.782380 91 91 91
-1.716441 2.539945 -0.053509 100 100 100
-1.897258 2.807513 0.907937 72 72 72
-1.568245 2.355935 -0.758340 94 94 94
-1.731910 2.601805 0.054556 100 100 100
-1.591673 2.391131 -0.663156 96 96 96
-1.749721 2.628562 0.165486 100 100 100
-1.600264 2.404037 -0.561360 100 100 100
-1.774159 2.665275 0.280119 97 97 97
-1.628753 2.446835 -0.465549 91 91 91
-1.799560 2.703435 0.398756 100 100 100
-1.645564 2.472090 -0.364633 91 91 91
-1.821401 2.736246 0.520614 86 86 86
-1.660445 2.494445 -0.262164 99 99 99
-1.850475 2.779923 0.649132 100 100 100
-1.682211 2.527143 -0.159101 85 85 85
-1.879988 2.824259 0.783280 88 88 88
-1.697560 2.550202 -0.053474 97 97 97
-1.888316 2.836771 0.913114 100 100 100
-1.561822 2.346286 -0.755234 94 94 94
-1.728585 2.596811 0.054452 102 102 102
-1.589513 2.387886 -0.662256 96 96 96
-1.751934 2.631887 0.165696 100 100 100
-1.600264 2.404037 -0.561360 100 100 100
-1.770847 2.660299 0.279596 95 95 95
-1.621091 2.435325 -0.463359 95 95 95
-1.797360 2.700130 0.398269 100 100 100
-1.647764 2.475394 -0.365121 97 97 97
-1.821401 2.736246 0.520614 88 88 88
-1.657133 2.489470 -0.261642 88 88 88
-1.839597 2.763580 0.645316 100 100 100
-1.684424 2.530469 -0.159311 81 81 81
-1.877828 2.821015 0.782380 91 91 91
-1.697560 2.550202 -0.053474 100 100 100
-1.887246 2.835163 0.912596 100 100 100
-1.546875 2.358478 -0.755752 88 88 88
-1.706483 2.601828 0.054312 106 106 106
