0.305019 2.527938 0.222770 67 67 67
0.218410 1.810144 -0.288778 5 5 5
0.314840 2.609337 0.322710 63 63 63
0.205455 1.702770 -0.210590 6 6 6
0.318979 2.643633 0.421747 60 60 60
0.213847 1.772326 -0.156183 68 68 68
0.325017 2.693680 0.527396 75 75 75
0.221308 1.834161 -0.096822 86 86 86
0.312576 2.590574 0.602419 66 66 66
0.222536 1.844340 -0.032427 54 54 54
0.298759 2.476062 0.668271 56 56 56
0.210821 1.747244 -0.471568 10 10 10
0.292244 2.422061 0.042584 77 77 77
0.212431 1.760584 -0.409411 8 8 8
0.300262 2.488511 0.131363 71 71 71
0.218246 1.808781 -0.354141 9 9 9
0.304542 2.523982 0.222421 67 67 67
0.218647 1.812105 -0.289091 5 5 5
0.311511 2.581745 0.319298 61 61 61
0.205455 1.702770 -0.210590 7 7 7
0.318979 2.643633 0.421747 60 60 60
0.213847 1.772326 -0.156183 70 70 70
0.323371 2.680036 0.524725 68 68 68
0.218916 1.814333 -0.095775 90 90 90
0.312810 2.592508 0.602869 64 64 64
0.222536 1.844340 -0.032427 54 54 54
0.298759 2.476062 0.668271 56 56 56
0.223198 1.749601 -0.472604 10 10 10
0.308723 2.420016 0.042584 74 74 74
0.224409 1.759097 -0.409411 7 7 7
0.315171 2.470560 0.130526 68 68 68
0.230304 1.805306 -0.353760 9 9 9
0.322723 2.529756 0.223119 67 67 67
0.230976 1.810575 -0.289091 5 5 5
0.328072 2.571689 0.318323 63 63 63
0.216287 1.695424 -0.209859 7 7 7
0.336216 2.635523 0.420809 62 62 62
0.226158 1.772806 -0.156357 66 66 66
0.342599 2.685563 0.526251 80 80 80
0.229744 1.800913 -0.095147 90 90 90
0.329216 2.580654 0.600619 66 66 66
0.234579 1.838815 -0.032357 55 55 55
0.316584 2.481636 0.670341 55 55 55
0.223442 1.751518 -0.473121 10 10 10
0.307711 2.412081 0.042444 74 74 74
0.224656 1.761030 -0.409861 8 8 8
0.314666 2.466597 0.130317 71 71 71
0.228814 1.793621 -0.351470 9 9 9
0.321462 2.519875 0.222247 62 62 62
0.231476 1.814494 -0.289717 5 5 5
0.328575 2.575627 0.318810 61 61 61
0.217040 1.701332 -0.210590 7 7 7
0.334466 2.621806 0.418619 58 58 58
0.223637 1.753042 -0.154614 60 60 60
0.343096 2.689458 0.527014 70 70 70
0.229238 1.796951 -0.094937 90 90 90
0.328969 2.578721 0.600169 64 64 64
0.232555 1.822946 -0.032078 56 56 56
0.316584 2.481636 0.670341 59 59 59
0.233389 1.730729 -0.467945 10 10 10
0.324429 2.405854 0.042374 72 72 72
0.237512 1.761309 -0.410311 7 7 7
0.331241 2.456365 0.129898 74 74 74
0.239544 1.776373 -0.348417 9 9 9
0.338155 2.507637 0.221376 69 69 69
0.246567 1.828452 -0.292220 5 5 5
0.346466 2.569275 0.318323 63 63 63
0.229474 1.701702 -0.210834 7 7 7
0.351898 2.609557 0.417054 62 62 62
0.232981 1.727703 -0.152523 50 50 50
0.361283 2.679152 0.525488 70 70 70
0.242892 1.801203 -0.095251 93 93 93
0.348456 2.584026 0.601969 64 64 64
0.245059 1.817272 -0.032008 56 56 56
0.333560 2.473563 0.668788 65 65 65
0.232098 1.721156 -0.465357 10 10 10
0.323093 2.395945 0.042200 68 68 68
0.236991 1.757446 -0.409411 7 7 7
0.331241 2.456365 0.129898 71 71 71
0.242430 1.797775 -0.352615 7 7 7
0.336557 2.495790 0.220330 67 67 67
0.244455 1.812791 -0.289717 5 5 5
0.345936 2.565341 0.317835 63 63 63
0.229474 1.701702 -0.210834 7 7 7
0.351634 2.607600 0.416741 60 60 60
0.228454 1.694136 -0.149559 48 48 48
0.361283 2.679152 0.525488 80 80 80
0.242358 1.797244 -0.095042 97 97 97
0.348976 2.587888 0.602869 61 61 61
0.243990 1.809345 -0.031868 57 57 57
0.333818 2.475478 0.669306 72 72 72
0.245164 1.729100 -0.467945 10 10 10
0.337990 2.383791 0.042025 72 72 72
0.247854 1.748075 -0.407611 5 5 5
0.347392 2.450099 0.129688 71 71 71
0.254385 1.794139 -0.352233 8 8 8
0.352419 2.485551 0.219632 69 69 69
0.256788 1.811085 -0.289717 5 5 5
0.360045 2.539341 0.314910 65 65 65
0.241609 1.704032 -0.211321 6 6 6
0.369376 2.605146 0.416741 60 60 60
0.234386 1.653089 -0.146073 45 45 45
0.376755 2.657192 0.521672 67 67 67
0.253184 1.785665 -0.094519 90 90 90
0.367130 2.589312 0.603769 61 61 61
0.256861 1.811602 -0.031938 57 57 57
0.351202 2.476974 0.670341 69 69 69
0.244621 1.725274 -0.466910 10 10 10
0.338271 2.385771 0.042060 63 63 63
0.247581 1.746145 -0.407161 6 6 6
0.344308 2.428346 0.128537 66 66 66
0.251629 1.774701 -0.348417 8 8 8
0.353537 2.493441 0.220330 69 69 69
0.258452 1.822820 -0.291594 5 5 5
0.359488 2.535411 0.314423 63 63 63
0.240495 1.696170 -0.210346 6 6 6
0.369376 2.605146 0.416741 58 58 58
0.233268 1.645198 -0.145376 44 44 44
0.377031 2.659136 0.522053 60 60 60
0.253464 1.787643 -0.094623 93 93 93
0.366036 2.581594 0.601969 64 64 64
0.256861 1.811602 -0.031938 57 57 57
0.351745 2.480799 0.671377 70 70 70
0.257815 1.729212 -0.468462 9 9 9
0.350027 2.347688 0.041432 54 54 54
0.259782 1.742402 -0.406712 6 6 6
0.362559 2.431747 0.128851 71 71 71
0.264322 1.772855 -0.348417 8 8 8
0.369608 2.479024 0.219284 67 67 67
0.273528 1.834600 -0.293784 6 6 6
0.378207 2.536700 0.314910 67 67 67
0.253211 1.698332 -0.210834 7 7 7
0.384512 2.578990 0.412987 54 54 54
0.243859 1.635604 -0.144679 48 48 48
0.396049 2.656370 0.522053 56 56 56
0.264777 1.775906 -0.094100 90 90 90
0.384500 2.578908 0.601969 61 61 61
0.268344 1.799829 -0.031763 60 60 60
0.370058 2.482040 0.672412 72 72 72
0.253827 1.702462 -0.461216 9 9 9
0.301371 2.021346 0.035673 48 48 48
0.260644 1.748184 -0.408061 6 6 6
0.361381 2.423845 0.128432 77 77 77
0.263743 1.768971 -0.347654 8 8 8
0.367258 2.463259 0.217889 69 69 69
0.272946 1.830692 -0.293158 6 6 6
0.377622 2.532773 0.314423 69 69 69
0.253211 1.698332 -0.210834 6 6 6
0.383930 2.575083 0.412361 58 58 58
0.242096 1.623780 -0.143633 50 50 50
0.394891 2.648603 0.520527 58 58 58
0.265072 1.777881 -0.094205 93 93 93
0.385362 2.584691 0.603319 68 68 68
0.268344 1.799829 -0.031763 64 64 64
0.368918 2.474397 0.670341 74 74 74
0.265409 1.700695 -0.461216 9 9 9
0.287989 1.845379 0.032601 44 44 44
0.272537 1.746369 -0.408061 6 6 6
0.377255 2.417382 0.128223 74 74 74
0.275173 1.763256 -0.346891 8 8 8
0.383401 2.456765 0.217541 69 69 69
0.285096 1.826840 -0.292845 7 7 7
0.394241 2.526221 0.313935 67 67 67
0.266602 1.708338 -0.212296 6 6 6
0.401449 2.572410 0.412361 54 54 54
0.251914 1.614221 -0.142935 50 50 50
0.410791 2.632275 0.517856 54 54 54
0.277167 1.776036 -0.094205 93 93 93
0.403848 2.587784 0.604668 64 64 64
0.279972 1.794009 -0.031694 63 63 63
0.386348 2.475646 0.671377 76 76 76
0.264814 1.696877 -0.460180 10 10 10
0.287680 1.843403 0.032566 54 54 54
0.269533 1.727115 -0.403562 6 6 6
0.377871 2.421329 0.128432 71 71 71
0.275173 1.763256 -0.346891 8 8 8
0.384323 2.462671 0.218064 72 72 72
0.283877 1.819033 -0.291594 6 6 6
0.391792 2.510531 0.311986 67 67 67
0.266602 1.708338 -0.212296 6 6 6
0.401449 2.572410 0.412361 60 60 60
0.252529 1.618158 -0.143284 48 48 48
0.408975 2.620636 0.515566 55 55 55
0.275319 1.764196 -0.093577 93 93 93
0.404449 2.591635 0.605568 64 64 64
0.279047 1.788081 -0.031589 68 68 68
0.386944 2.479464 0.672412 74 74 74
0.277572 1.698752 -0.461216 9 9 9
0.300219 1.837350 0.032496 59 59 59
0.282199 1.727065 -0.404012 6 6 6
0.391001 2.392939 0.127072 66 66 66
0.287150 1.757366 -0.346128 8 8 8
0.400972 2.453959 0.217541 67 67 67
0.299754 1.834501 -0.294410 6 6 6
0.408466 2.499826 0.311011 65 65 65
0.277860 1.700509 -0.211565 6 6 6
0.418891 2.563623 0.411423 56 56 56
0.264423 1.618276 -0.143458 51 51 51
0.428034 2.619580 0.515948 56 56 56
0.286970 1.756267 -0.093263 88 88 88
0.421727 2.580982 0.603769 64 64 64
0.291835 1.786039 -0.031589 66 66 66
0.405299 2.480445 0.673447 74 74 74
0.276949 1.694939 -0.460180 10 10 10
0.300864 1.841297 0.032566 60 60 60
0.281570 1.723219 -0.403112 6 6 6
0.391323 2.394910 0.127176 71 71 71
0.285250 1.745741 -0.343838 9 9 9
0.400329 2.450026 0.217192 69 69 69
0.298798 1.828653 -0.293471 6 6 6
0.407826 2.495908 0.310523 65 65 65
0.277539 1.698550 -0.211321 7 7 7
0.416979 2.551926 0.409545 62 62 62
0.264744 1.620242 -0.143633 48 48 48
0.427717 2.617643 0.515566 55 55 55
0.287292 1.758238 -0.093367 93 93 93
0.422041 2.582905 0.604219 66 66 66
0.288610 1.766304 -0.031240 74 74 74
0.405299 2.480445 0.673447 74 74 74
0.286177 1.677729 -0.456039 10 10 10
0.312703 1.833238 0.032461 64 64 64
0.295560 1.732737 -0.405812 6 6 6
0.407697 2.390151 0.127072 66 66 66
0.297431 1.743707 -0.343838 8 8 8
0.413738 2.425567 0.215275 63 63 63
0.312221 1.830417 -0.294097 6 6 6
0.425241 2.493000 0.310523 63 63 63
0.291727 1.710269 -0.213028 6 6 6
0.433456 2.541163 0.408294 62 62 62
0.273704 1.604606 -0.142412 51 51 51
0.444991 2.608787 0.514421 56 56 56
0.299896 1.758159 -0.093472 88 88 88
0.440718 2.583737 0.605118 69 69 69
0.301270 1.766217 -0.031275 72 72 72
0.421307 2.469937 0.671377 76 76 76
0.285527 1.673920 -0.455004 10 10 10
0.310013 1.817469 0.032182 64 64 64
0.294249 1.725053 -0.404012 7 7 7
0.406690 2.384244 0.126758 68 68 68
0.297431 1.743707 -0.343838 8 8 8
0.413403 2.423603 0.215100 69 69 69
0.311889 1.828469 -0.293784 6 6 6
0.424573 2.489086 0.310036 65 65 65
0.291393 1.708312 -0.212784 6 6 6
0.432460 2.535322 0.407355 60 60 60
0.272364 1.596750 -0.141715 49 49 49
0.442680 2.595240 0.511750 55 55 55
0.299560 1.756190 -0.093367 94 94 94
0.440718 2.583737 0.605118 68 68 68
0.301270 1.766217 -0.031275 72 72 72
0.421307 2.469937 0.671377 69 69 69
0.297972 1.679599 -0.457074 10 10 10
0.319265 1.799621 0.031903 69 69 69
0.303981 1.713470 -0.401763 7 7 7
0.422494 2.381494 0.126758 71 71 71
0.309675 1.745562 -0.344601 8 8 8
0.428772 2.416885 0.214752 69 69 69
0.324354 1.828306 -0.294097 6 6 6
0.437604 2.466670 0.307598 65 65 65
0.304104 1.714160 -0.213759 6 6 6
0.448575 2.528508 0.406730 58 58 58
0.282948 1.594909 -0.141715 47 47 47
0.458168 2.582582 0.509842 58 58 58
0.308410 1.738432 -0.092530 100 100 100
0.458525 2.584595 0.606018 68 68 68
0.314026 1.770087 -0.031379 76 76 76
0.439703 2.478502 0.674482 74 74 74
0.299322 1.687207 -0.459145 10 10 10
0.320313 1.805528 0.032008 63 63 63
0.302960 1.707713 -0.400413 6 6 6
0.419354 2.363795 0.125816 66 66 66
0.306931 1.730098 -0.341548 9 9 9
0.429816 2.422770 0.215275 75 75 75
0.324009 1.826361 -0.293784 6 6 6
0.436911 2.462761 0.307111 61 61 61
0.302023 1.702432 -0.212296 6 6 6
0.448575 2.528508 0.406730 60 60 60
0.284340 1.602756 -0.142412 38 38 38
0.458168 2.582582 0.509842 58 58 58
0.308410 1.738432 -0.092530 100 100 100
0.458866 2.586514 0.606468 72 72 72
0.311930 1.758273 -0.031170 74 74 74
0.439703 2.478502 0.674482 74 74 74
0.311331 1.683068 -0.458627 11 11 11
0.333540 1.803131 0.032008 66 66 66
0.316179 1.709279 -0.401313 7 7 7
0.437033 2.362622 0.125920 68 68 68
0.317463 1.716218 -0.339258 9 9 9
0.446477 2.413677 0.214752 67 67 67
0.338107 1.827821 -0.294410 6 6 6
0.454230 2.455588 0.306623 65 65 65
0.314134 1.698221 -0.212053 6 6 6
0.464223 2.509612 0.404227 64 64 64
0.294631 1.592792 -0.141715 23 23 23
0.477087 2.579154 0.509842 58 58 58
0.321145 1.736124 -0.092530 100 100 100
0.477104 2.579248 0.605568 72 72 72
0.323355 1.748074 -0.031030 82 82 82
0.459265 2.482810 0.676553 72 72 72
0.308871 1.669771 -0.455004 8 8 8
0.333176 1.801165 0.031973 69 69 69
0.315825 1.707363 -0.400863 8 8 8
0.435580 2.354766 0.125502 71 71 71
0.316748 1.712357 -0.338495 8 8 8
0.444303 2.401922 0.213706 69 69 69
0.338825 1.831706 -0.295035 6 6 6
0.455674 2.463396 0.307598 61 61 61
0.316661 1.711885 -0.213759 6 6 6
0.462067 2.497958 0.402349 64 64 64
0.293182 1.584955 -0.141018 15 15 15
0.475658 2.571432 0.508315 60 60 60
0.321871 1.740052 -0.092739 100 100 100
0.477459 2.581165 0.606018 69 69 69
0.321173 1.736276 -0.030821 76 76 76
0.457157 2.471413 0.673447 72 72 72
0.318408 1.658144 -0.452416 8 8 8
0.342411 1.783145 0.031694 69 69 69
0.326336 1.699432 -0.399513 7 7 7
0.451975 2.353708 0.125606 66 66 66
0.329878 1.717874 -0.340022 8 8 8
0.459890 2.394929 0.213357 69 69 69
0.351285 1.829357 -0.295035 6 6 6
0.471683 2.456338 0.307111 65 65 65
0.327932 1.707740 -0.213515 6 6 6
0.480177 2.500574 0.403288 66 66 66
0.306969 1.598576 -0.142412 10 10 10
0.489448 2.548854 0.504499 62 62 62
0.332201 1.729975 -0.092321 100 100 100
0.497957 2.593165 0.609617 79 79 79
0.333361 1.736013 -0.030856 70 70 70
0.474697 2.472038 0.674482 76 76 76
0.318772 1.660041 -0.452933 10 10 10
0.340903 1.775290 0.031554 66 66 66
0.323764 1.686036 -0.396364 8 8 8
0.450845 2.347824 0.125292 68 68 68
0.329507 1.715946 -0.339640 9 9 9
0.459139 2.391015 0.213009 65 65 65
0.350168 1.823538 -0.294097 6 6 6
0.467190 2.432945 0.304186 63 63 63
0.329055 1.713588 -0.214246 6 6 6
0.477942 2.488935 0.401411 62 62 62
0.307721 1.602489 -0.142761 9 9 9
0.488708 2.544998 0.503736 60 60 60
0.329188 1.714284 -0.091483 100 100 100
0.499794 2.602734 0.611867 93 93 93
0.334869 1.743869 -0.030995 72 72 72
0.475426 2.475832 0.675518 74 74 74
0.331486 1.663459 -0.454486 11 11 11
0.355633 1.784633 0.031763 72 72 72
0.335527 1.683734 -0.396364 8 8 8
0.464883 2.332867 0.124664 68 68 68
0.341095 1.711678 -0.339258 8 8 8
0.475041 2.383844 0.212660 69 69 69
0.364048 1.826860 -0.295035 6 6 6
0.483388 2.425730 0.303698 61 61 61
0.340234 1.707356 -0.213759 6 6 6
0.496078 2.489412 0.402037 66 66 66
0.319679 1.604210 -0.143110 9 9 9
0.504928 2.533823 0.502209 60 60 60
0.341148 1.711944 -0.091483 100 100 100
0.513002 2.574336 0.606018 86 86 86
0.345863 1.735605 -0.030891 82 82 82
0.493454 2.476242 0.676553 76 76 76
0.329598 1.653986 -0.451898 10 10 10
0.355242 1.782672 0.031728 73 73 73
0.334765 1.679912 -0.395464 8 8 8
0.464102 2.328949 0.124455 71 71 71
0.338026 1.696275 -0.336205 8 8 8
0.474262 2.379936 0.212311 67 67 67
0.363276 1.822986 -0.294410 6 6 6
0.482612 2.421837 0.303211 61 61 61
0.339846 1.705409 -0.213515 6 6 6
0.493376 2.475851 0.399846 64 64 64
0.320458 1.608118 -0.143458 9 9 9
0.506463 2.541524 0.503736 62 62 62
0.340367 1.708027 -0.091274 100 100 100
0.513002 2.574336 0.606018 86 86 86
0.344300 1.727760 -0.030751 78 78 78
0.494209 2.480031 0.677588 72 72 72
0.336660 1.632843 -0.446722 10 10 10
0.365442 1.772443 0.031589 73 73 73
0.347867 1.687198 -0.397713 8 8 8
0.478731 2.321908 0.124246 74 74 74
0.348475 1.690150 -0.335442 8 8 8
0.488025 2.366981 0.211440 63 63 63
0.375358 1.820536 -0.294410 6 6 6
0.499465 2.422471 0.303698 63 63 63
0.351951 1.707006 -0.214003 6 6 6
0.509387 2.470590 0.399534 69 69 69
0.329507 1.598152 -0.142761 7 7 7
0.521722 2.530418 0.502209 60 60 60
0.353301 1.713556 -0.091693 100 100 100
0.530851 2.574695 0.606918 82 82 82
0.354136 1.717605 -0.030612 74 74 74
0.508306 2.465347 0.674482 72 72 72
0.339781 1.647979 -0.450863 2 2 2
0.363020 1.760692 0.031379 73 73 73
0.345899 1.677655 -0.395464 7 7 7
0.478731 2.321908 0.124246 71 71 71
0.348475 1.690150 -0.335442 8 8 8
0.486013 2.357225 0.210568 65 65 65
0.373364 1.810863 -0.292845 6 6 6
0.499465 2.422471 0.303698 61 61 61
0.353955 1.716727 -0.215221 6 6 6
0.508589 2.466720 0.398908 66 66 66
0.331116 1.605957 -0.143458 7 7 7
0.519343 2.518881 0.499920 62 62 62
0.350881 1.701819 -0.091065 100 100 100
0.531638 2.578512 0.607818 85 85 85
0.355751 1.725439 -0.030751 82 82 82
0.509086 2.469131 0.675518 74 74 74
0.349143 1.634170 -0.447757 3 3 3
0.374774 1.754138 0.031310 73 73 73
0.353824 1.656079 -0.390965 7 7 7
0.494499 2.314516 0.124036 74 74 74
0.360971 1.689533 -0.335824 8 8 8
0.504117 2.359532 0.211091 63 63 63
0.377645 1.767578 -0.286275 6 6 6
0.512640 2.399422 0.301261 61 61 61
0.366230 1.714150 -0.215221 7 7 7
0.527465 2.468813 0.399846 73 73 73
0.342600 1.603546 -0.143458 7 7 7
0.535714 2.507421 0.498393 62 62 62
0.360546 1.687546 -0.090437 100 100 100
0.550890 2.578453 0.608718 81 81 81
0.368089 1.722849 -0.030751 82 82 82
0.527549 2.469203 0.676553 74 74 74
0.347528 1.626614 -0.445686 8 8 8
0.375192 1.756094 0.031345 69 69 69
0.354231 1.657985 -0.391415 8 8 8
0.491161 2.298891 0.123199 74 74 74
0.361791 1.693373 -0.336587 8 8 8
0.503701 2.357583 0.210917 65 65 65
0.376820 1.763714 -0.285649 7 7 7
0.511810 2.395540 0.300774 61 61 61
0.363742 1.702503 -0.213759 7 7 7
0.524576 2.455291 0.397656 69 69 69
0.346763 1.623031 -0.145201 7 7 7
0.534893 2.503581 0.497630 62 62 62
0.359712 1.683640 -0.090227 100 100 100
0.546818 2.559396 0.604219 81 81 81
0.367253 1.718938 -0.030681 78 78 78
0.529970 2.480539 0.679659 79 79 79
0.360960 1.633580 -0.448275 10 10 10
0.387874 1.755384 0.031379 73 73 73
0.365376 1.653569 -0.390965 8 8 8
0.506336 2.291505 0.122989 77 77 77
0.373604 1.690806 -0.336587 11 11 11
0.519288 2.350119 0.210568 67 67 67
0.389976 1.764898 -0.286275 7 7 7
0.527665 2.388031 0.300286 65 65 65
0.378188 1.711552 -0.215221 6 6 6
0.539147 2.439996 0.395779 66 66 66
0.355506 1.608897 -0.144156 7 7 7
0.552358 2.499786 0.497630 62 62 62
0.371457 1.681087 -0.090227 100 100 100
0.564673 2.555516 0.604219 78 78 78
0.375793 1.700711 -0.030402 78 78 78
0.548108 2.480551 0.680694 79 79 79
0.356375 1.612830 -0.442581 10 10 10
0.387011 1.751479 0.031310 74 74 74
0.369161 1.670695 -0.395014 8 8 8
0.506336 2.291505 0.122989 79 79 79
0.371486 1.681221 -0.334679 11 11 11
0.516279 2.336500 0.209348 72 72 72
0.381026 1.724392 -0.279705 8 8 8
0.529378 2.395785 0.301261 61 61 61
0.382043 1.728997 -0.217415 7 7 7
0.537442 2.432280 0.394528 69 69 69
0.355506 1.608897 -0.144156 9 9 9
0.552358 2.499786 0.497630 60 60 60
0.370595 1.677187 -0.090018 100 100 100
0.563832 2.551710 0.603319 66 66 66
0.375793 1.700711 -0.030402 76 76 76
0.545607 2.469233 0.677588 74 74 74
0.368351 1.616081 -0.444133 11 11 11
0.395508 1.735226 0.031065 69 69 69
0.381965 1.675810 -0.396814 9 9 9
0.521079 2.286150 0.122885 64 64 64
0.382192 1.676806 -0.334297 10 10 10
0.530435 2.327197 0.208825 69 69 69
0.388503 1.704493 -0.276889 7 7 7
0.542609 2.380608 0.299799 65 65 65
0.390414 1.712877 -0.215709 6 6 6
0.554879 2.434440 0.395466 73 73 73
0.364397 1.598734 -0.143458 9 9 9
0.565871 2.482668 0.494959 64 64 64
0.379935 1.666903 -0.089599 100 100 100
0.581609 2.551715 0.604219 66 66 66
0.386620 1.696232 -0.030367 72 72 72
0.563689 2.473094 0.679659 74 74 74
0.367493 1.612314 -0.443098 11 11 11
0.395063 1.733276 0.031030 70 70 70
0.377634 1.656809 -0.392315 12 12 12
0.499331 2.190731 0.117756 46 46 46
0.380883 1.671064 -0.333153 9 9 9
0.530435 2.327197 0.208825 67 67 67
0.390259 1.712197 -0.278140 6 6 6
0.539962 2.368996 0.298336 69 69 69
0.392178 1.720619 -0.216684 6 6 6
0.553123 2.426736 0.394215 64 64 64
0.368382 1.616217 -0.145027 7 7 7
0.564126 2.475012 0.493432 66 66 66
0.369283 1.620167 -0.087087 98 98 98
0.581609 2.551715 0.604219 66 66 66
0.386176 1.694282 -0.030332 76 76 76
0.562831 2.469327 0.678624 76 76 76
0.383006 1.626567 -0.447757 12 12 12
0.408373 1.734298 0.031100 73 73 73
0.384121 1.631302 -0.386916 8 8 8
0.418404 1.776899 0.095670 52 52 52
0.394181 1.674028 -0.334297 7 7 7
0.547531 2.325281 0.208999 72 72 72
0.401143 1.703593 -0.277202 9 9 9
0.553260 2.349613 0.296386 67 67 67
0.403571 1.713904 -0.216196 6 6 6
0.569568 2.418871 0.393589 73 73 73
0.380851 1.617418 -0.145376 7 7 7
0.580922 2.467089 0.492669 68 68 68
0.379036 1.609707 -0.086668 96 96 96
0.594494 2.524725 0.598820 69 69 69
0.399206 1.695368 -0.030402 84 84 84
0.583143 2.476519 0.681729 79 79 79
0.381235 1.619045 -0.445686 11 11 11
0.407456 1.730405 0.031030 74 74 74
0.386354 1.640787 -0.389165 7 7 7
0.415657 1.765234 0.095042 81 81 81
0.391031 1.660651 -0.331626 8 8 8
0.546618 2.321403 0.208651 72 72 72
0.401596 1.705515 -0.277515 10 10 10
0.555080 2.357342 0.297361 67 67 67
0.404481 1.717768 -0.216684 6 6 6
0.567305 2.409257 0.392025 69 69 69
0.382678 1.625176 -0.146073 7 7 7
0.579573 2.461357 0.491524 56 56 56
0.369422 1.568881 -0.084470 71 71 71
0.593601 2.520931 0.597920 68 68 68
0.395540 1.679797 -0.030123 84 84 84
0.583143 2.476519 0.681729 74 74 74
0.388602 1.601394 -0.441545 10 10 10
0.419225 1.727591 0.031030 74 74 74
0.396594 1.634331 -0.388266 5 5 5
0.427192 1.760423 0.094937 88 88 88
0.401400 1.654135 -0.330863 10 10 10
0.558647 2.302139 0.207256 72 72 72
0.411332 1.695064 -0.276263 11 11 11
0.570177 2.349651 0.296874 67 67 67
0.419909 1.730408 -0.218634 7 7 7
0.581827 2.397661 0.390773 66 66 66
0.389973 1.607044 -0.144679 7 7 7
0.598165 2.464986 0.493050 62 62 62
0.381035 1.570212 -0.084680 80 80 80
0.609367 2.511151 0.596570 72 72 72
0.406021 1.673179 -0.030053 78 78 78
0.599075 2.468737 0.680694 76 76 76
0.386779 1.593884 -0.439475 10 10 10
0.415924 1.713988 0.030786 78 78 78
0.400271 1.649482 -0.391865 10 10 10
0.427663 1.762364 0.095042 93 93 93
0.399548 1.646504 -0.329336 10 10 10
0.556768 2.294394 0.206559 79 79 79
0.408537 1.683546 -0.274386 11 11 11
0.570177 2.349651 0.296874 69 69 69
0.421781 1.738124 -0.219609 7 7 7
0.581827 2.397661 0.390773 69 69 69
0.390912 1.610916 -0.145027 7 7 7
0.593535 2.445907 0.489234 58 58 58
0.378209 1.558566 -0.084052 80 80 80
0.610746 2.516832 0.597920 69 69 69
0.406021 1.673179 -0.030053 82 82 82
0.598164 2.464983 0.679659 74 74 74
0.399303 1.596768 -0.441028 7 7 7
0.425454 1.701343 0.030612 76 76 76
0.408467 1.633413 -0.388715 11 11 11
0.439956 1.759335 0.095042 90 90 90
0.412462 1.649388 -0.330481 10 10 10
0.575672 2.302048 0.207605 75 75 75
0.419322 1.676820 -0.273760 11 11 11
0.583196 2.332133 0.295168 73 73 73
0.433424 1.733212 -0.219365 7 7 7
0.597593 2.389708 0.390148 69 69 69
0.403116 1.612014 -0.145376 7 7 7
0.608691 2.434086 0.487708 60 60 60
0.387142 1.548138 -0.083633 84 84 84
0.626411 2.504945 0.596120 68 68 68
0.419633 1.678063 -0.030193 84 84 84
0.618170 2.471992 0.682765 74 74 74
0.399772 1.598642 -0.441545 10 10 10
0.426910 1.707163 0.030716 78 78 78
0.404685 1.618289 -0.385116 10 10 10
0.435111 1.739960 0.093995 93 93 93
0.412462 1.649388 -0.330481 11 11 11
0.573739 2.294317 0.206908 75 75 75
0.421239 1.684485 -0.275012 11 11 11
0.581751 2.326355 0.294436 69 69 69
0.428126 1.712028 -0.216684 6 6 6
0.597593 2.389708 0.390148 69 69 69
0.406016 1.623611 -0.146422 7 7 7
0.608691 2.434086 0.487708 60 60 60
0.387142 1.548138 -0.083633 82 82 82
0.621683 2.486040 0.591621 69 69 69
0.418662 1.674183 -0.030123 84 84 84
0.619107 2.475740 0.683800 76 76 76
0.410923 1.595812 -0.441545 12 12 12
0.439815 1.708014 0.030786 78 78 78
0.415973 1.615424 -0.385116 10 10 10
0.447746 1.738814 0.094100 97 97 97
0.420050 1.631259 -0.327428 10 10 10
0.588749 2.286396 0.206559 72 72 72
0.430525 1.671939 -0.273447 12 12 12
0.597978 2.322237 0.294436 69 69 69
0.442048 1.716687 -0.217659 7 7 7
0.610321 2.370174 0.387645 69 69 69
0.420322 1.632313 -0.147468 7 7 7
0.626648 2.433579 0.488471 56 56 56
0.396945 1.541529 -0.083424 84 84 84
0.638538 2.479752 0.591171 72 72 72
0.427348 1.659601 -0.029913 82 82 82
0.637340 2.475099 0.684835 83 83 83
0.406587 1.578975 -0.436887 12 12 12
0.439815 1.708014 0.030786 81 81 81
0.415973 1.615424 -0.385116 11 11 11
0.448742 1.742682 0.094309 100 100 100
0.421029 1.635061 -0.328191 10 10 10
0.583780 2.267102 0.204816 79 79 79
0.432003 1.677677 -0.274386 11 11 11
0.597978 2.322237 0.294436 69 69 69
0.444028 1.724377 -0.218634 6 6 6
0.608351 2.362522 0.386393 66 66 66
0.414360 1.609160 -0.145376 8 8 8
0.626648 2.433579 0.488471 58 58 58
0.398937 1.549266 -0.083842 80 80 80
0.637080 2.474090 0.589822 69 69 69
0.426351 1.655728 -0.029844 78 78 78
0.635413 2.467616 0.682765 79 79 79
0.418314 1.579906 -0.437922 12 12 12
0.448360 1.693382 0.030577 78 78 78
0.425463 1.606904 -0.383766 11 11 11
0.461105 1.741518 0.094414 93 93 93
0.432149 1.632157 -0.328191 11 11 11
0.599198 2.263076 0.204816 75 75 75
0.438357 1.655602 -0.271257 11 11 11
0.612246 2.312356 0.293705 73 73 73
0.459312 1.734747 -0.220340 6 6 6
0.624923 2.360236 0.386706 77 77 77
0.428363 1.617858 -0.146422 7 7 7
0.639178 2.414075 0.485418 58 58 58
0.408451 1.542653 -0.083633 80 80 80
0.655402 2.475348 0.591171 72 72 72
0.438635 1.656653 -0.029913 82 82 82
0.652194 2.463233 0.682765 83 83 83
0.417325 1.576171 -0.436887 12 12 12
0.449383 1.697248 0.030646 78 78 78
0.423966 1.601253 -0.382417 11 11 11
0.462638 1.747310 0.094728 63 63 63
0.432149 1.632157 -0.328191 11 11 11
0.598688 2.261150 0.204642 85 85 85
0.441896 1.668969 -0.273447 8 8 8
0.611230 2.308518 0.293218 73 73 73
0.458296 1.730909 -0.219852 7 7 7
0.620879 2.344959 0.384203 63 63 63
0.427343 1.614006 -0.146073 7 7 7
0.634153 2.395096 0.481602 60 60 60
0.405383 1.531068 -0.083005 82 82 82
0.653407 2.467813 0.589372 72 72 72
0.438635 1.656653 -0.029913 84 84 84
0.654172 2.470703 0.684835 86 86 86
0.431871 1.586267 -0.440510 12 12 12
0.460696 1.692140 0.030612 74 74 74
0.432063 1.586972 -0.379717 11 11 11
0.532014 1.954093 0.106137 31 31 31
0.443017 1.627206 -0.327810 10 10 10
0.614459 2.256915 0.204642 85 85 85
0.455093 1.671562 -0.274386 6 6 6
0.622117 2.285041 0.290780 72 72 72
0.468804 1.721921 -0.219121 6 6 6
0.639829 2.350098 0.385767 69 69 69
0.441741 1.622518 -0.147119 7 7 7
0.651890 2.394399 0.482365 56 56 56
0.415538 1.526274 -0.082900 76 76 76
0.666524 2.448149 0.585773 72 72 72
0.450190 1.653551 -0.029913 78 78 78
0.673435 2.473532 0.686906 86 86 86
0.430856 1.582539 -0.439475 12 12 12
0.461746 1.695999 0.030681 73 73 73
0.435647 1.600134 -0.382867 11 11 11
0.596024 2.189201 0.118907 78 78 78
0.444564 1.632889 -0.328955 7 7 7
0.613936 2.254993 0.204467 75 75 75
0.457169 1.679186 -0.275638 4 4 4
0.623160 2.288872 0.291268 74 74 74
0.468804 1.721921 -0.219121 7 7 7
0.636715 2.338662 0.383890 69 69 69
0.442788 1.626363 -0.147468 7 7 7
0.652922 2.398188 0.483128 60 60 60
0.416587 1.530128 -0.083109 73 73 73
0.665500 2.444388 0.584873 74 74 74
0.445987 1.638115 -0.029634 76 76 76
0.675465 2.480988 0.688976 88 88 88
0.439017 1.570267 -0.436887 12 12 12
0.477587 1.708224 0.030961 46 46 46
0.446528 1.597132 -0.382867 10 10 10
0.614676 2.198558 0.119640 82 82 82
0.456726 1.633607 -0.329718 4 4 4
0.627662 2.245005 0.203944 85 85 85
0.465397 1.664620 -0.273760 2 2 2
0.638725 2.284577 0.291268 74 74 74
0.481583 1.722514 -0.219609 7 7 7
0.650492 2.326664 0.382639 69 69 69
0.450629 1.611799 -0.146422 7 7 7
0.668173 2.389906 0.482365 62 62 62
0.428068 1.531104 -0.083319 56 56 56
0.683172 2.443555 0.585773 74 74 74
0.457127 1.635041 -0.029634 74 74 74
0.690256 2.468891 0.686906 91 91 91
0.436937 1.562825 -0.434816 12 12 12
0.480280 1.717853 0.031135 20 20 20
0.449152 1.606516 -0.385116 6 6 6
0.615751 2.202405 0.119849 85 85 85
0.456726 1.633607 -0.329718 4 4 4
0.624979 2.235411 0.203073 82 82 82
0.455291 1.628474 -0.267816 1 1 1
0.637656 2.280754 0.290780 72 72 72
0.483721 1.730161 -0.220584 6 6 6
0.649960 2.324761 0.382326 64 64 64
0.451702 1.615636 -0.146770 7 7 7
0.664473 2.376671 0.479694 55 55 55
0.428068 1.531104 -0.083319 35 35 35
0.682123 2.439802 0.584873 74 74 74
0.461973 1.652374 -0.029948 61 61 61
0.689216 2.465170 0.685870 81 81 81
0.451309 1.570799 -0.437922 12 12 12
0.503052 1.750889 0.031798 20 20 20
0.460098 1.601387 -0.384666 3 3 3
0.630392 2.194103 0.119640 82 82 82
0.466236 1.622749 -0.328191 2 2 2
0.639859 2.227052 0.202724 79 79 79
0.463660 1.613783 -0.265939 1 1 1
0.650671 2.264685 0.289318 72 72 72
0.496637 1.728563 -0.220827 6 6 6
0.668215 2.325747 0.383264 69 69 69
0.466552 1.623852 -0.147816 7 7 7
0.678752 2.362421 0.477786 58 58 58
0.438462 1.526082 -0.083214 22 22 22
0.700102 2.436731 0.585323 68 68 68
0.479859 1.670167 -0.030332 42 42 42
0.707905 2.463889 0.686906 88 88 88
0.454510 1.581939 -0.441028 10 10 10
0.509126 1.772030 0.032182 12 12 12
0.462789 1.610752 -0.386916 3 3 3
0.628186 2.186425 0.119221 85 85 85
0.455393 1.585011 -0.320559 1 1 1
0.640959 2.230882 0.203073 79 79 79
0.458750 1.596696 -0.263123 4 4 4
0.649575 2.260869 0.288830 72 72 72
0.492800 1.715208 -0.219121 6 6 6
0.666033 2.318152 0.382013 69 69 69
0.468753 1.631512 -0.148513 7 7 7
0.678752 2.362421 0.477786 56 56 56
0.439565 1.529921 -0.083424 13 13 13
0.695259 2.419874 0.581274 72 72 72
0.488694 1.700918 -0.030891 28 28 28
0.710572 2.473172 0.689494 97 97 97
0.464450 1.575021 -0.439992 5 5 5
0.535059 1.814466 0.033020 17 17 17
0.472369 1.601875 -0.385566 1 1 1
0.641175 2.174323 0.118803 82 82 82
0.458118 1.553547 -0.314835 1 1 1
0.654827 2.220619 0.202550 85 85 85
0.471562 1.599139 -0.264061 7 7 7
0.666466 2.260087 0.289318 71 71 71
0.504762 1.711726 -0.219121 4 4 4
0.677172 2.296394 0.379197 64 64 64
0.482386 1.635844 -0.149211 7 7 7
0.697449 2.365157 0.479312 60 60 60
0.450800 1.528731 -0.083528 13 13 13
0.712136 2.414962 0.581274 76 76 76
0.499992 1.695547 -0.030856 28 28 28
0.729460 2.473710 0.691047 107 107 107
0.463904 1.573169 -0.439475 5 5 5
0.550330 1.866253 0.033962 14 14 14
0.458589 1.555146 -0.374319 0 0 0
0.640045 2.170492 0.118593 88 88 88
0.458118 1.553547 -0.314835 4 4 4
0.651446 2.209153 0.201504 85 85 85
0.468768 1.589665 -0.262497 7 7 7
0.666466 2.260087 0.289318 71 71 71
0.508131 1.723150 -0.220584 3 3 3
0.677172 2.296394 0.379197 64 64 64
0.477878 1.620555 -0.147816 7 7 7
0.695228 2.357625 0.477786 58 58 58
0.455319 1.544057 -0.084366 14 14 14
0.708278 2.401877 0.578124 69 69 69
0.502254 1.703219 -0.030995 25 25 25
0.721810 2.447769 0.683800 105 105 105
0.477113 1.577288 -0.441545 5 5 5
0.590557 1.952325 0.035603 29 29 29
0.464357 1.535119 -0.370269 3 3 3
0.655183 2.165970 0.118593 85 85 85
0.471226 1.557827 -0.316361 7 7 7
0.666853 2.204551 0.201504 85 85 85
0.478711 1.582572 -0.261871 7 7 7
0.679929 2.247779 0.288343 73 73 73
0.520723 1.721461 -0.220827 3 3 3
0.693187 2.291610 0.379197 64 64 64
0.488026 1.613366 -0.147468 7 7 7
0.708260 2.341439 0.475496 62 62 62
0.464353 1.535105 -0.084052 13 13 13
0.727850 2.406201 0.580374 72 72 72
0.521080 1.722640 -0.031414 24 24 24
0.738881 2.442670 0.683800 92 92 92
0.474316 1.568042 -0.438957 3 3 3
0.637455 2.107363 0.038430 74 74 74
0.463228 1.531388 -0.369370 7 7 7
0.652870 2.158323 0.118175 85 85 85
0.472363 1.561586 -0.317125 9 9 9
0.665699 2.200737 0.201155 85 85 85
0.475279 1.571228 -0.259994 7 7 7
0.675331 2.232579 0.286393 68 68 68
0.518424 1.713860 -0.219852 2 2 2
0.692615 2.289719 0.378884 66 66 66
0.491487 1.624808 -0.148513 7 7 7
0.705418 2.332043 0.473588 64 64 64
0.462040 1.527458 -0.083633 11 11 11
0.725593 2.398739 0.578574 72 72 72
0.529186 1.749437 -0.031903 20 20 20
0.736644 2.435273 0.681729 83 83 83
0.469229 1.513029 -0.424463 1 1 1
0.651559 2.100951 0.038395 81 81 81
0.468136 1.509504 -0.364871 7 7 7
0.664372 2.142267 0.117547 88 88 88
0.482090 1.554500 -0.316361 9 9 9
0.680457 2.194133 0.200981 79 79 79
0.488578 1.575418 -0.261246 7 7 7
0.692077 2.231602 0.286880 74 74 74
0.532141 1.715887 -0.220584 3 3 3
0.706828 2.279168 0.377946 64 64 64
0.506359 1.632755 -0.149559 7 7 7
0.723426 2.332687 0.474733 58 58 58
0.475650 1.533734 -0.084156 11 11 11
0.738858 2.382448 0.575875 72 72 72
0.546717 1.762889 -0.032217 19 19 19
0.755916 2.437452 0.683800 86 86 86
0.466940 1.505648 -0.422393 4 4 4
0.653336 2.106681 0.038500 89 89 89
0.471022 1.518810 -0.367120 8 8 8
0.659639 2.127006 0.116709 34 34 34
0.479182 1.545124 -0.314453 9 9 9
0.681047 2.196036 0.201155 85 85 85
0.489748 1.579192 -0.261871 7 7 7
0.690901 2.227810 0.286393 73 73 73
0.532141 1.715887 -0.220584 3 3 3
0.705073 2.273508 0.377007 66 66 66
0.505769 1.630852 -0.149385 7 7 7
0.725752 2.340187 0.476259 58 58 58
0.475650 1.533734 -0.084156 11 11 11
0.735395 2.371280 0.573175 74 74 74
0.552048 1.780079 -0.032531 22 22 22
0.753627 2.430071 0.681729 81 81 81
0.473344 1.489464 -0.418769 11 11 11
0.666210 2.096352 0.038395 86 86 86
0.483384 1.521057 -0.368470 7 7 7
0.534134 1.680748 0.092425 71 71 71
0.488768 1.537999 -0.313690 9 9 9
0.692741 2.179835 0.200110 85 85 85
0.500761 1.575734 -0.261871 7 7 7
0.708842 2.230499 0.287368 73 73 73
0.541702 1.704563 -0.219609 2 2 2
0.718535 2.261000 0.375756 66 66 66
0.517745 1.629180 -0.149559 7 7 7
0.738504 2.323837 0.473970 62 62 62
0.489975 1.541796 -0.084784 10 10 10
0.751341 2.364231 0.572725 69 69 69
0.552954 1.739972 -0.031868 28 28 28
0.769404 2.421069 0.680694 81 81 81
0.473344 1.489464 -0.418769 11 11 11
0.660154 2.077294 0.038046 76 76 76
0.484565 1.524771 -0.369370 8 8 8
0.535948 1.686459 0.092739 100 100 100
0.491147 1.545483 -0.315216 8 8 8
0.690931 2.174139 0.199587 79 79 79
0.494778 1.556908 -0.258743 7 7 7
0.707639 2.226716 0.286880 74 74 74
0.538094 1.693212 -0.218146 1 1 1
0.718535 2.261000 0.375756 66 66 66
0.516539 1.625382 -0.149211 7 7 7
0.734342 2.310740 0.471298 64 64 64
0.491790 1.547507 -0.085098 8 8 8
0.754292 2.373517 0.574975 76 76 76
0.491179 1.545583 -0.028308 28 28 28
0.765893 2.410022 0.677588 74 74 74
0.486123 1.493471 -0.420840 12 12 12
0.490976 1.508380 -0.366220 7 7 7
0.545854 1.676978 0.092425 100 100 100
0.501317 1.540150 -0.314835 8 8 8
0.706709 2.171157 0.199761 89 89 89
0.508081 1.560930 -0.259994 7 7 7
0.718252 2.206620 0.284931 72 72 72
0.533313 1.638449 -0.211565 1 1 1
0.734302 2.255928 0.375756 69 69 69
0.529723 1.627420 -0.149734 6 6 6
0.748025 2.298090 0.469772 66 66 66
0.492691 1.513649 -0.083424 1 1 1
0.770844 2.368193 0.574975 76 76 76
0.497624 1.528806 -0.028063 45 45 45
0.783895 2.408290 0.678624 74 74 74
0.484329 1.487960 -0.419287 12 12 12
0.535379 1.644797 0.030193 72 72 72
0.490976 1.508380 -0.366220 7 7 7
0.540909 1.661785 0.091588 100 100 100
0.500709 1.538283 -0.314453 8 8 8
0.706709 2.171157 0.199761 92 92 92
0.506246 1.555294 -0.259055 6 6 6
0.717023 2.202845 0.284443 72 72 72
0.518567 1.593146 -0.205715 1 1 1
0.734913 2.257807 0.376068 73 73 73
0.532190 1.634999 -0.150431 5 5 5
0.748025 2.298090 0.469772 64 64 64
0.767225 2.357075 0.572275 72 72 72
0.492054 1.511692 -0.027749 68 68 68
0.782699 2.404616 0.677588 81 81 81
0.494446 1.484629 -0.419287 12 12 12
0.543403 1.631629 0.030018 70 70 70
0.501231 1.505003 -0.366220 7 7 7
0.550945 1.654275 0.091379 100 100 100
0.506826 1.521800 -0.311782 8 8 8
0.722730 2.170077 0.200110 85 85 85
0.733255 2.201680 0.284931 73 73 73
0.533162 1.600879 -0.207178 1 1 1
0.744647 2.235885 0.373253 69 69 69
0.534493 1.604874 -0.147990 1 1 1
0.764891 2.296670 0.470535 64 64 64
0.777093 2.333309 0.567776 74 74 74
0.494750 1.485541 -0.027330 97 97 97
0.796607 2.391902 0.675518 76 76 76
0.492004 1.477297 -0.417216 12 12 12
0.543403 1.631629 0.030018 84 84 84
0.503694 1.512399 -0.368020 7 7 7
0.549683 1.650485 0.091169 100 100 100
0.504344 1.514350 -0.310255 7 7 7
0.716434 2.151174 0.198366 89 89 89
0.529929 1.591170 -0.265626 1 1 1
0.732001 2.197913 0.284443 72 72 72
0.540062 1.621597 -0.209859 1 1 1
0.744647 2.235885 0.373253 69 69 69
0.764891 2.296670 0.470535 66 66 66
0.485312 1.457202 -0.080493 2 2 2
0.778941 2.338856 0.569126 68 68 68
0.492222 1.477952 -0.027191 100 100 100
0.792945 2.380904 0.672412 76 76 76
0.500436 1.468341 -0.415663 12 12 12
0.550910 1.616438 0.029809 91 91 91
0.514241 1.508845 -0.368020 7 7 7
0.563770 1.654169 0.091588 100 100 100
0.519337 1.523800 -0.312927 2 2 2
0.729507 2.140462 0.197844 82 82 82
0.534652 1.568734 -0.262497 1 1 1
0.748608 2.196507 0.284931 71 71 71
0.549449 1.612150 -0.209128 1 1 1
0.760875 2.232501 0.373566 73 73 73
0.774573 2.272692 0.466719 66 66 66
0.496761 1.457559 -0.080702 2 2 2
0.795250 2.333361 0.569126 69 69 69
0.502528 1.474480 -0.027191 93 93 93
0.808301 2.371653 0.671377 76 76 76
0.500436 1.468341 -0.415663 11 11 11
0.548330 1.608867 0.029669 96 96 96
0.509211 1.494089 -0.364421 7 7 7
0.563770 1.654169 0.091588 100 100 100
0.513637 1.507075 -0.309492 1 1 1
0.726936 2.132919 0.197146 82 82 82
0.535926 1.572474 -0.263123 1 1 1
0.743485 2.181476 0.282981 69 69 69
0.757689 2.223152 0.372001 75 75 75
0.773306 2.268975 0.465956 68 68 68
0.510292 1.497259 -0.082900 1 1 1
0.792735 2.325983 0.567327 69 69 69
0.504463 1.480158 -0.027296 60 60 60
0.809547 2.375310 0.672412 74 74 74
0.515246 1.479584 -0.419804 11 11 11
0.558988 1.605195 0.029669 88 88 88
0.516546 1.483317 -0.362621 7 7 7
0.570787 1.639077 0.090960 100 100 100
0.531369 1.525884 -0.314072 1 1 1
0.745652 2.141222 0.198366 89 89 89
0.543745 1.561423 -0.261871 1 1 1
0.756631 2.172747 0.282493 69 69 69
0.773716 2.221809 0.372627 72 72 72
0.785755 2.256380 0.464429 68 68 68
0.521525 1.497614 -0.083109 1 1 1
0.807503 2.318834 0.566877 74 74 74
0.516242 1.482445 -0.027400 62 62 62
0.825283 2.369889 0.672412 72 72 72
0.512705 1.472287 -0.417734 6 6 6
0.564249 1.620303 0.029948 93 93 93
0.516546 1.483317 -0.362621 2 2 2
0.566846 1.627760 0.090332 100 100 100
0.528786 1.518468 -0.312545 1 1 1
0.743031 2.133695 0.197669 89 89 89
0.555438 1.595002 -0.267503 1 1 1
0.756631 2.172747 0.282493 69 69 69
0.765920 2.199423 0.368872 72 72 72
0.789629 2.267504 0.466719 66 66 66
0.521525 1.497614 -0.083109 1 1 1
0.805581 2.313313 0.565527 68 68 68
0.510981 1.467337 -0.027121 60 60 60
0.822741 2.362592 0.670341 74 74 74
0.518688 1.455842 -0.414110 5 5 5
0.574487 1.612456 0.029879 86 86 86
0.534995 1.501612 -0.368020 0 0 0
0.581161 1.631188 0.090751 100 100 100
0.537003 1.507248 -0.311019 1 1 1
0.753600 2.115186 0.196449 82 82 82
0.774824 2.174757 0.283468 72 72 72
0.780313 2.190165 0.368247 69 69 69
0.530930 1.490202 -0.138403 1 1 1
0.805834 2.261796 0.466719 68 68 68
0.534909 1.501370 -0.083528 1 1 1
0.822114 2.307489 0.565527 66 66 66
0.522810 1.467411 -0.027191 51 51 51
0.837033 2.349365 0.668271 69 69 69
0.516743 1.450382 -0.412558 4 4 4
0.567776 1.593619 0.029529 91 91 91
0.541535 1.519969 -0.372519 0 0 0
0.581161 1.631188 0.090751 100 100 100
0.547546 1.536838 -0.317125 1 1 1
0.714816 2.006330 0.186339 60 60 60
0.772159 2.167278 0.282493 68 68 68
0.780313 2.190165 0.368247 73 73 73
0.524243 1.471434 -0.136660 1 1 1
0.800563 2.247001 0.463666 66 66 66
0.527536 1.480674 -0.082377 1 1 1
0.820806 2.303817 0.564627 66 66 66
0.545628 1.531457 -0.028378 23 23 23
0.835736 2.345725 0.667235 69 69 69
0.528839 1.452185 -0.414110 1 1 1
0.580256 1.593375 0.029599 96 96 96
0.538797 1.479529 -0.363521 0 0 0
0.593901 1.630844 0.090960 100 100 100
0.496456 1.363262 -0.282016 1 1 1
0.619724 1.701752 0.158449 61 61 61
0.781836 2.146912 0.280543 73 73 73
0.505375 1.387752 -0.181342 1 1 1
0.796936 2.188376 0.368872 72 72 72
0.518141 1.422807 -0.132477 1 1 1
0.812200 2.230289 0.461376 68 68 68
0.531025 1.458188 -0.081330 10 10 10
0.837536 2.299862 0.565077 76 76 76
0.565886 1.553916 -0.028866 81 81 81
0.852092 2.339833 0.667235 72 72 72
0.523551 1.437663 -0.409969 1 1 1
0.578887 1.589617 0.029529 88 88 88
0.550800 1.512489 -0.371619 0 0 0
0.588434 1.615830 0.090123 100 100 100
0.605406 1.662438 0.154789 62 62 62
0.783195 2.150643 0.281031 69 69 69
0.518960 1.425057 -0.186216 1 1 1
0.795584 2.184664 0.368247 73 73 73
0.517459 1.420935 -0.132302 1 1 1
0.810856 2.226599 0.460613 66 66 66
0.532392 1.461942 -0.081539 9 9 9
0.831534 2.283382 0.561028 59 59 59
0.562465 1.544521 -0.028692 75 75 75
0.850770 2.336203 0.666200 74 74 74
0.545445 1.466659 -0.419287 1 1 1
0.592482 1.593137 0.029669 96 96 96
0.548855 1.475827 -0.363521 0 0 0
0.598026 1.608044 0.089913 100 100 100
0.616708 1.658278 0.154789 73 73 73
0.797816 2.145262 0.281031 69 69 69
0.514809 1.384280 -0.181342 1 1 1
0.802174 2.156980 0.364492 73 73 73
0.535453 1.439789 -0.134394 3 3 3
0.832152 2.237590 0.464047 75 75 75
0.555559 1.493852 -0.083528 5 5 5
0.845699 2.274016 0.560128 61 61 61
0.545781 1.467560 -0.027330 50 50 50
0.869346 2.337600 0.668271 70 70 70
0.545445 1.466659 -0.419287 1 1 1
0.592482 1.593137 0.029669 91 91 91
0.598026 1.608044 0.089913 100 100 100
0.611847 1.645206 0.153568 75 75 75
0.799200 2.148983 0.281518 69 69 69
0.525880 1.414049 -0.185241 1 1 1
0.800797 2.153277 0.363867 70 70 70
0.526424 1.415512 -0.132128 5 5 5
0.828730 2.228389 0.462139 64 64 64
0.568090 1.527548 -0.085412 5 5 5
0.847058 2.277669 0.561028 62 62 62
0.538113 1.446943 -0.026947 60 60 60
0.862612 2.319494 0.663094 70 70 70
0.546067 1.437532 -0.412040 1 1 1
0.597909 1.574007 0.029390 86 86 86
0.613493 1.615032 0.090541 100 100 100
0.515205 1.356287 -0.282016 1 1 1
0.621195 1.635307 0.153045 61 61 61
0.539430 1.420061 -0.240596 1 1 1
0.811363 2.135928 0.280543 72 72 72
0.536444 1.412199 -0.185485 1 1 1
0.817213 2.151327 0.364492 75 75 75
0.537709 1.415528 -0.132477 3 3 3
0.842176 2.217043 0.460995 75 75 75
0.583705 1.536614 -0.086145 10 10 10
0.862938 2.271700 0.561028 62 62 62
0.549622 1.446890 -0.027016 42 42 42
0.877412 2.309803 0.662059 70 70 70
0.596489 1.570268 0.029320 100 100 100
0.559145 1.471960 -0.363521 0 0 0
0.610656 1.607564 0.090123 100 100 100
0.540303 1.422358 -0.295754 1 1 1
0.615535 1.620407 0.151651 46 46 46
0.532416 1.401594 -0.237468 1 1 1
0.807134 2.124794 0.279081 73 73 73
0.530100 1.395498 -0.183291 3 3 3
0.818616 2.155021 0.365118 72 72 72
0.551151 1.450916 -0.135789 2 2 2
0.838690 2.207867 0.459086 70 70 70
0.570939 1.503007 -0.084261 11 11 11
0.862938 2.271700 0.561028 61 61 61
0.553882 1.458106 -0.027226 20 20 20
0.878784 2.313415 0.663094 70 70 70
0.607437 1.566065 0.029320 100 100 100
0.617531 1.592089 0.089494 100 100 100
0.536021 1.381944 -0.288122 1 1 1
0.631876 1.629073 0.152871 47 47 47
0.527901 1.361009 -0.231210 1 1 1
0.821948 2.119107 0.279081 72 72 72
0.536240 1.382509 -0.182073 6 6 6
0.833640 2.149253 0.365118 69 69 69
0.569193 1.467466 -0.137706 1 1 1
0.852663 2.198297 0.458323 70 70 70
0.559750 1.443121 -0.081121 6 6 6
0.871729 2.247452 0.556529 61 61 61
0.562602 1.450475 -0.027156 11 11 11
0.894913 2.307224 0.663094 72 72 72
0.605990 1.562337 0.029250 100 100 100
0.544038 1.402613 -0.347324 0 0 0
0.618975 1.595813 0.089704 100 100 100
0.524661 1.352657 -0.282016 1 1 1
0.631155 1.627216 0.152697 46 46 46
0.535044 1.379426 -0.234339 2 2 2
0.820512 2.115406 0.278593 73 73 73
0.539111 1.389912 -0.183048 3 3 3
0.827926 2.134520 0.362615 72 72 72
0.569193 1.467466 -0.137706 1 1 1
0.855503 2.205618 0.459850 70 70 70
0.565528 1.458018 -0.081958 1 1 1
0.871729 2.247452 0.556529 61 61 61
0.553924 1.428103 -0.026737 2 2 2
0.893516 2.303621 0.662059 72 72 72
0.616611 1.558176 0.029250 88 88 88
0.552138 1.395254 -0.346425 0 0 0
0.626883 1.584134 0.089285 100 100 100
0.551194 1.392867 -0.291175 1 1 1
0.640750 1.619177 0.152348 48 48 48
0.538606 1.361058 -0.231836 5 5 5
0.837814 2.117155 0.279568 72 72 72
0.560977 1.417589 -0.187191 2 2 2
0.842435 2.128835 0.362615 72 72 72
0.559374 1.413537 -0.133000 3 3 3
0.867607 2.192442 0.458323 64 64 64
0.887007 2.241466 0.556529 61 61 61
0.563632 1.424299 -0.026737 1 1 1
0.906332 2.290301 0.659989 74 74 74
0.615139 1.554457 0.029180 93 93 93
0.543534 1.373510 -0.341026 0 0 0
0.626883 1.584134 0.089285 100 100 100
0.526632 1.330800 -0.278200 1 1 1
0.638551 1.613619 0.151825 52 52 52
0.535699 1.353711 -0.230584 4 4 4
0.836353 2.113464 0.279081 73 73 73
0.569012 1.437894 -0.189872 2 2 2
0.842435 2.128835 0.362615 70 70 70
0.553509 1.398717 -0.131605 2 2 2
0.865439 2.186966 0.457178 75 75 75
0.886290 2.239654 0.556079 64 64 64
0.560689 1.416861 -0.026597 1 1 1
0.904910 2.286708 0.658953 74 74 74
0.622981 1.542708 0.029041 100 100 100
0.561866 1.391365 -0.346425 0 0 0
0.639423 1.583423 0.089494 100 100 100
0.540321 1.338013 -0.280489 4 4 4
0.649055 1.607274 0.151651 48 48 48
0.553273 1.370087 -0.234026 3 3 3
0.845141 2.092848 0.277131 73 73 73
0.571603 1.415479 -0.187435 2 2 2
0.858756 2.126565 0.363241 73 73 73
0.555054 1.374496 -0.129688 1 1 1
0.874070 2.164487 0.453744 65 65 65
0.903363 2.237026 0.556979 64 64 64
0.572064 1.416621 -0.026667 1 1 1
0.920852 2.280335 0.658953 74 74 74
0.532402 1.318403 -0.380982 1 1 1
0.625976 1.550125 0.029180 100 100 100
0.535597 1.326314 -0.330228 0 0 0
0.634936 1.572311 0.088866 100 100 100
0.537380 1.330731 -0.278963 5 5 5
0.652039 1.614664 0.152348 53 53 53
0.567326 1.404888 -0.239970 2 2 2
0.846627 2.096529 0.277618 76 76 76
0.559710 1.386028 -0.183535 3 3 3
0.857277 2.122901 0.362615 72 72 72
0.592356 1.466869 -0.138403 1 1 1
0.880686 2.180870 0.457178 75 75 75
0.897526 2.222570 0.553380 66 66 66
0.575060 1.424038 -0.026807 1 1 1
0.922299 2.283918 0.659989 74 74 74
0.633199 1.538542 0.029041 100 100 100
0.542156 1.317327 -0.328878 1 1 1
0.643830 1.564372 0.088657 100 100 100
0.542458 1.318061 -0.277055 4 4 4
0.666525 1.619516 0.153220 70 70 70
0.582646 1.415708 -0.242473 2 2 2
0.859002 2.087197 0.277131 73 73 73
0.567380 1.378614 -0.183048 2 2 2
0.866827 2.106209 0.360738 75 75 75
0.891395 2.165904 0.455270 70 70 70
0.912246 2.216569 0.553380 66 66 66
0.598190 1.453478 -0.027435 1 1 1
0.935956 2.274178 0.658953 74 74 74
0.541134 1.314843 -0.380982 1 1 1
0.633199 1.538542 0.029041 100 100 100
0.536964 1.304712 -0.325729 3 3 3
0.643830 1.564372 0.088657 100 100 100
0.543953 1.321692 -0.277818 2 2 2
0.659700 1.602934 0.151651 100 100 100
0.562347 1.366387 -0.234026 3 3 3
0.862024 2.094539 0.278106 73 73 73
0.562091 1.365765 -0.181342 1 1 1
0.863820 2.098902 0.359486 72 72 72
0.892889 2.169535 0.456033 74 74 74
0.631667 1.534821 -0.086982 1 1 1
0.910763 2.212965 0.552480 66 66 66
0.603518 1.466423 -0.027680 5 5 5
0.928603 2.256313 0.653777 76 76 76
0.550300 1.311033 -0.380982 1 1 1
0.639281 1.523021 0.028831 100 100 100
0.546814 1.302728 -0.326179 4 4 4
0.657827 1.567205 0.089076 100 100 100
0.575202 1.370359 -0.288885 2 2 2
0.664706 1.583593 0.150257 100 100 100
0.564992 1.346035 -0.231210 3 3 3
0.875089 2.084810 0.277618 76 76 76
0.878451 2.092820 0.359486 72 72 72
0.901935 2.148767 0.452981 68 68 68
0.625361 1.489858 -0.084680 1 1 1
0.929207 2.213740 0.554279 64 64 64
0.616062 1.467705 -0.027784 11 11 11
0.947323 2.256900 0.655847 76 76 76
0.535346 1.275407 -0.370629 1 1 1
0.641603 1.528552 0.028936 100 100 100
0.545306 1.299135 -0.325279 2 2 2
0.654735 1.559839 0.088657 100 100 100
0.567603 1.352257 -0.285069 2 2 2
0.666248 1.587267 0.150605 100 100 100
0.555053 1.322356 -0.227143 1 1 1
0.868943 2.070167 0.275668 73 73 73
0.881510 2.100106 0.360738 75 75 75
0.900415 2.145146 0.452217 70 70 70
0.632318 1.506433 -0.085622 1 1 1
0.926190 2.206553 0.552480 66 66 66
0.616836 1.469549 -0.027819 11 11 11
0.944333 2.249775 0.653777 81 81 81
0.543477 1.269862 -0.370111 4 4 4
0.653045 1.525874 0.028971 100 100 100
0.565863 1.322170 -0.332028 0 0 0
0.662465 1.547886 0.088238 100 100 100
0.565443 1.321188 -0.279344 4 4 4
0.675745 1.578914 0.150257 100 100 100
0.880250 2.056750 0.274694 76 76 76
0.620158 1.449032 -0.193529 1 1 1
0.891486 2.083004 0.358861 73 73 73
0.661634 1.545943 -0.147119 1 1 1
0.918459 2.146027 0.453744 70 70 70
0.656965 1.535032 -0.087506 4 4 4
0.936972 2.189283 0.549780 66 66 66
0.629441 1.470722 -0.027924 11 11 11
0.961536 2.246680 0.654812 72 72 72
0.544237 1.271638 -0.370629 9 9 9
0.648324 1.514844 0.028762 90 90 90
0.568930 1.329336 -0.333827 0 0 0
0.662465 1.547886 0.088238 100 100 100
0.559263 1.306748 -0.276291 2 2 2
0.677313 1.582577 0.150605 100 100 100
0.558830 1.305737 -0.224953 1 1 1
0.879469 2.054925 0.274450 79 79 79
0.609223 1.423483 -0.190116 1 1 1
0.889932 2.079372 0.358235 70 70 70
0.633413 1.480002 -0.140844 1 1 1
0.917686 2.144223 0.453362 75 75 75
0.665609 1.555230 -0.088657 14 14 14
0.933904 2.182117 0.547981 66 66 66
0.624720 1.459692 -0.027714 11 11 11
0.960016 2.243128 0.653777 72 72 72
0.545930 1.251967 -0.365970 6 6 6
0.651427 1.493899 0.028447 85 85 85
0.566282 1.298638 -0.327079 2 2 2
0.671389 1.539679 0.088029 100 100 100
0.579916 1.329905 -0.282016 1 1 1
0.681698 1.563319 0.149211 100 100 100
0.607184 1.392438 -0.240596 1 1 1
0.895816 2.054350 0.275181 73 73 73
0.645876 1.481170 -0.198403 1 1 1
0.902486 2.069645 0.357609 75 75 75
0.696033 1.596193 -0.152348 1 1 1
0.929906 2.132528 0.452217 66 66 66
0.680969 1.561648 -0.089285 14 14 14
0.948736 2.175710 0.547981 64 64 64
0.633043 1.451740 -0.027645 11 11 11
0.969084 2.222375 0.649636 76 76 76
0.549019 1.259050 -0.368041 3 3 3
0.640237 1.468237 0.027959 68 68 68
0.562387 1.289706 -0.324829 2 2 2
0.676179 1.550664 0.088657 100 100 100
0.579916 1.329905 -0.282016 1 1 1
0.683291 1.566972 0.149559 100 100 100
0.895022 2.052530 0.274937 79 79 79
0.636355 1.459334 -0.195478 1 1 1
0.902486 2.069645 0.357609 73 73 73
0.714350 1.638198 -0.156357 2 2 2
0.926767 2.125329 0.450691 70 70 70
0.680171 1.559817 -0.089180 13 13 13
0.637839 1.462738 -0.027854 11 11 11
0.965996 2.215291 0.647565 81 81 81
0.572701 1.288729 -0.377876 1 1 1
0.641538 1.443630 0.027575 61 61 61
0.569794 1.282187 -0.323930 0 0 0
0.686989 1.545905 0.088657 100 100 100
0.589186 1.325824 -0.282016 1 1 1
0.692595 1.558522 0.149211 100 100 100
0.616890 1.388166 -0.240596 1 1 1
0.902881 2.031720 0.272987 79 79 79
0.633629 1.425832 -0.191579 1 1 1
0.920923 2.072320 0.359174 79 79 79
0.733860 1.651378 -0.158101 6 6 6
0.938393 2.111631 0.449164 68 68 68
0.691044 1.555031 -0.089180 13 13 13
0.651307 1.465611 0.370269 23 23 23
0.652907 1.469214 -0.028063 10 10 10
0.981438 2.208493 0.647565 74 74 74
0.570348 1.283433 -0.376323 3 3 3
0.633418 1.425356 0.027226 61 61 61
0.576125 1.296434 -0.327529 0 0 0
