1.173479 3.362212 0.186630 72 72 72
1.189657 3.408567 0.315852 79 79 79
1.068189 3.060539 -0.513418 86 86 86
1.144744 3.279882 0.426543 46 46 46
1.090450 3.124321 -0.406312 77 77 77
1.077302 3.086650 0.517798 48 48 48
1.102994 3.160261 -0.292843 74 74 74
1.018935 2.919420 0.601048 61 61 61
1.124118 3.220785 -0.178780 59 59 59
0.967736 2.772724 0.678002 65 65 65
1.137350 3.258697 -0.060246 82 82 82
0.917970 2.630137 0.746434 62 62 62
1.151847 3.300234 0.061014 83 83 83
1.173479 3.362212 0.186630 68 68 68
0.858493 2.459727 -0.506407 1 1 1
1.192940 3.417972 0.316724 78 78 78
1.073396 3.075459 -0.515921 83 83 83
1.141473 3.270510 0.425324 49 49 49
1.094375 3.135567 -0.407775 80 80 80
1.081208 3.097840 0.519675 38 38 38
1.105620 3.167785 -0.293541 74 74 74
1.016348 2.912005 0.599522 61 61 61
1.120169 3.209470 -0.178152 63 63 63
0.971589 2.783763 0.680702 65 65 65
1.142622 3.273802 -0.060525 78 78 78
0.920516 2.637433 0.748505 61 61 61
1.180140 3.305089 0.061258 87 87 87
1.198180 3.355610 0.186735 64 64 64
1.220718 3.418730 0.317596 83 83 83
1.101355 3.084443 -0.518737 85 85 85
1.166182 3.265998 0.425811 55 55 55
1.114114 3.120177 -0.406800 76 76 76
1.102683 3.088163 0.519362 31 31 31
1.134959 3.178556 -0.295284 68 68 68
1.039800 2.912054 0.601048 62 62 62
1.143106 3.201372 -0.178152 61 61 61
0.986241 2.762057 0.677103 65 65 65
1.168709 3.273074 -0.060665 78 78 78
0.939366 2.630779 0.748505 62 62 62
1.182158 3.310739 0.061363 83 83 83
1.202209 3.366896 0.187363 76 76 76
1.223398 3.426236 0.318293 83 83 83
1.104676 3.093744 -0.520301 80 80 80
1.167517 3.269737 0.426299 49 49 49
1.116784 3.127655 -0.407775 77 77 77
1.099362 3.078862 0.517798 28 28 28
1.137639 3.186062 -0.295981 68 68 68
1.042441 2.919449 0.602575 63 63 63
1.148479 3.216420 -0.178989 59 59 59
0.986241 2.762057 0.677103 65 65 65
1.168709 3.273074 -0.060665 78 78 78
0.941964 2.638056 0.750575 65 65 65
0.969167 2.656992 -0.757822 1 1 1
1.210148 3.317645 0.061642 79 79 79
1.229890 3.371769 0.188095 84 84 84
1.248056 3.421573 0.318641 96 96 96
1.129093 3.095432 -0.521865 82 82 82
1.189066 3.259849 0.426055 52 52 52
1.143490 3.134901 -0.409725 76 76 76
1.116909 3.062028 0.516234 34 34 34
1.155886 3.168885 -0.295109 64 64 64
1.060943 2.908597 0.601812 62 62 62
1.176506 3.225415 -0.179931 56 56 56
1.003683 2.751619 0.676203 66 66 66
1.192331 3.268801 -0.060734 80 80 80
0.955927 2.620694 0.747469 62 62 62
0.966519 2.649732 -0.755752 3 3 3
1.210148 3.317645 0.061642 83 83 83
0.986321 2.704019 -0.664505 3 3 3
1.233997 3.383027 0.188723 68 68 68
1.248056 3.421573 0.318641 100 100 100
1.127739 3.091721 -0.521240 82 82 82
1.189066 3.259849 0.426055 46 46 46
1.148932 3.149820 -0.411675 76 76 76
1.120970 3.073163 0.518111 48 48 48
1.156569 3.170757 -0.295284 21 21 21
1.058252 2.901220 0.600285 65 65 65
1.179928 3.234797 -0.180454 57 57 57
1.005019 2.755280 0.677103 66 66 66
1.196443 3.280072 -0.060944 76 76 76
0.955927 2.620694 0.747469 60 60 60
0.978247 2.624818 -0.750575 2 2 2
1.237470 3.320358 0.061851 77 77 77
0.997008 2.675155 -0.659107 3 3 3
1.258979 3.378073 0.188933 68 68 68
0.963296 2.584701 -0.536173 1 1 1
1.278175 3.429579 0.320210 93 93 93
1.206249 3.236587 0.424105 46 46 46
1.172973 3.147302 -0.412406 47 47 47
1.143777 3.068964 0.518737 52 52 52
1.026297 2.753744 -0.257109 4 4 4
1.077109 2.890082 0.599522 61 61 61
1.199692 3.218995 -0.180036 61 61 61
1.024230 2.748197 0.677103 67 67 67
1.223503 3.282883 -0.061153 75 75 75
0.975549 2.617577 0.748505 65 65 65
0.975549 2.617577 -0.748505 2 2 2
1.240263 3.327854 0.061991 75 75 75
0.984758 2.642286 -0.651008 2 2 2
1.263164 3.389302 0.189561 79 79 79
0.969467 2.601258 -0.539608 1 1 1
1.279567 3.433313 0.320559 71 71 71
0.943030 2.530322 -0.427692 21 21 21
1.207635 3.240308 0.424593 52 52 52
0.983023 2.637633 -0.345621 18 18 18
1.141708 3.063411 0.517798 49 49 49
1.017948 2.731341 -0.255018 13 13 13
1.077109 2.890082 0.599522 60 60 60
1.201785 3.224609 -0.180350 56 56 56
1.021508 2.740893 0.675303 63 63 63
1.223503 3.282883 -0.061153 72 72 72
0.976898 2.621197 0.749540 63 63 63
0.983961 2.587575 -0.741775 2 2 2
1.267282 3.332638 0.062235 73 73 73
1.000875 2.632054 -0.650109 3 3 3
1.282775 3.373382 0.189142 72 72 72
0.985302 2.591101 -0.538845 1 1 1
1.303725 3.428475 0.320907 57 57 57
0.922579 2.426154 -0.411110 13 13 13
1.230510 3.235938 0.425080 52 52 52
0.995556 2.618067 -0.343915 24 24 24
1.160595 3.052079 0.517172 49 49 49
1.028959 2.705907 -0.253275 27 27 27
1.099044 2.890215 0.601048 57 57 57
1.229533 3.233369 -0.181292 57 57 57
1.038278 2.730414 0.674403 57 57 57
1.244538 3.272827 -0.061118 78 78 78
0.992888 2.611049 0.748505 65 65 65
0.975035 2.564101 -0.735046 2 2 2
1.270125 3.340115 0.062375 68 68 68
0.999490 2.628411 -0.649209 3 3 3
1.287745 3.386450 0.189875 79 79 79
0.985302 2.591101 -0.538845 1 1 1
1.300893 3.421026 0.320210 59 59 59
0.904324 2.378148 -0.402975 14 14 14
1.233333 3.243360 0.426055 52 52 52
0.986384 2.593946 -0.340747 21 21 21
1.157787 3.044694 0.515921 49 49 49
1.014087 2.666799 -0.249614 31 31 31
1.099044 2.890215 0.601048 63 63 63
1.232373 3.240837 -0.181710 61 61 61
1.038278 2.730414 0.674403 58 58 58
1.249513 3.285911 -0.061363 76 76 76
0.990141 2.603827 0.746434 62 62 62
0.989416 2.548227 -0.732458 3 3 3
1.294860 3.334895 0.062445 70 70 70
1.012878 2.608653 -0.646059 4 4 4
1.318584 3.395996 0.190922 76 76 76
0.999103 2.573178 -0.536555 1 1 1
1.324744 3.411861 0.320210 59 59 59
0.915184 2.357045 -0.400472 15 15 15
1.256664 3.236521 0.426299 55 55 55
1.002313 2.581445 -0.340015 21 21 21
1.177585 3.032854 0.515295 48 48 48
1.026911 2.644796 -0.248220 30 30 30
1.114931 2.871491 0.598759 61 61 61
1.259306 3.243325 -0.182338 63 63 63
1.057314 2.723099 0.674403 59 59 59
1.278213 3.292020 -0.061642 78 78 78
1.005498 2.589647 0.744364 61 61 61
0.990115 2.550028 -0.732976 3 3 3
1.297755 3.342351 0.062584 68 68 68
1.003708 2.585037 -0.640211 3 3 3
1.320030 3.399720 0.191131 76 76 76
1.002656 2.582329 -0.538463 1 1 1
1.329071 3.423005 0.321256 66 66 66
0.908034 2.338630 -0.397344 16 16 16
1.248042 3.214315 0.423374 49 49 49
0.994410 2.561089 -0.337334 23 23 23
1.179015 3.036537 0.515921 50 50 50
1.011046 2.603935 -0.244385 20 20 20
1.114931 2.871491 0.598759 58 58 58
1.256414 3.235878 -0.181920 59 59 59
1.061546 2.733999 0.677103 63 63 63
1.281108 3.299477 -0.061782 72 72 72
1.008295 2.596851 0.746434 63 63 63
1.001046 2.527065 -0.728317 3 3 3
1.327840 3.352032 0.062933 78 78 78
1.011233 2.552780 -0.633912 3 3 3
1.343876 3.392513 0.191236 72 72 72
1.021657 2.579095 -0.539226 1 1 1
1.350872 3.410174 0.320907 60 60 60
0.921022 2.325049 -0.396092 15 15 15
1.268430 3.202055 0.422887 49 49 49
1.002315 2.530269 -0.334166 24 24 24
1.201839 3.033951 0.516859 51 51 51
1.020675 2.576617 -0.242467 18 18 18
1.133005 2.860185 0.597995 58 58 58
1.284295 3.242106 -0.182757 67 67 67
1.074390 2.712216 0.673503 57 57 57
1.308692 3.303694 -0.062026 78 78 78
1.027371 2.593519 0.747469 60 60 60
0.996777 2.516289 -0.725211 3 3 3
1.334468 3.368764 0.063248 87 87 87
1.008362 2.545533 -0.632112 3 3 3
1.349025 3.405511 0.191968 76 76 76
1.021657 2.579095 -0.539226 1 1 1
1.351606 3.412026 0.321082 56 56 56
0.917384 2.315867 -0.394528 16 16 16
1.269161 3.203900 0.423130 46 46 46
0.998660 2.521041 -0.332947 27 27 27
1.198201 3.024768 0.515295 49 49 49
1.015539 2.563651 -0.241247 22 22 22
1.135897 2.867486 0.599522 60 60 60
1.288708 3.253247 -0.183385 65 65 65
1.072954 2.708592 0.672604 58 58 58
1.306483 3.298117 -0.061921 83 83 83
1.027371 2.593519 0.747469 63 63 63
1.004617 2.484018 -0.717964 3 3 3
1.360040 3.362836 0.063317 75 75 75
1.026551 2.538253 -0.632112 3 3 3
1.375606 3.401325 0.192282 74 74 74
1.031253 2.549877 -0.534647 1 1 1
1.371505 3.391185 0.320036 55 55 55
0.930229 2.300086 -0.392963 14 14 14
1.294287 3.200257 0.423862 49 49 49
1.009232 2.495428 -0.330510 28 28 28
1.219815 3.016116 0.515295 49 49 49
1.026388 2.537848 -0.239504 24 24 24
1.156387 2.859284 0.599522 58 58 58
1.319443 3.262458 -0.184432 74 74 74
1.095232 2.708072 0.674403 58 58 58
1.333049 3.296099 -0.062061 83 83 83
1.041557 2.575356 0.744364 63 63 63
0.998099 2.467900 -0.713305 3 3 3
1.357041 3.355421 0.063178 77 77 77
1.023629 2.531026 -0.630313 3 3 3
1.384592 3.423544 0.193538 74 74 74
1.037141 2.564438 -0.537700 1 1 1
1.369264 3.385644 0.319513 50 50 50
0.922082 2.279942 -0.389522 9 9 9
1.292055 3.194736 0.423130 42 42 42
1.008487 2.493587 -0.330266 30 30 30
1.222037 3.021610 0.516234 51 51 51
1.019665 2.521224 -0.237935 25 25 25
1.156387 2.859284 0.599522 58 58 58
1.326932 3.280973 -0.185479 99 99 99
1.096693 2.711685 0.675303 65 65 65
1.339047 3.310929 -0.062340 91 91 91
1.043006 2.578938 0.745399 63 63 63
1.009409 2.446585 -0.709164 3 3 3
1.385009 3.356957 0.063387 77 77 77
1.027895 2.491392 -0.622215 3 3 3
1.415314 3.430411 0.194480 79 79 79
1.053522 2.553505 -0.536937 1 1 1
1.399705 3.392578 0.321082 57 57 57
0.938730 2.275275 -0.389835 4 4 4
1.306755 3.167288 0.420693 28 28 28
1.017543 2.466301 -0.327585 28 28 28
1.240842 3.007527 0.515295 47 47 47
1.029642 2.495626 -0.236192 27 27 27
1.174823 2.847512 0.598759 61 61 61
1.342949 3.255013 -0.184537 110 110 110
1.114111 2.700360 0.674403 58 58 58
1.370518 3.321834 -0.062724 100 100 100
1.060985 2.571593 0.745399 62 62 62
1.012356 2.453729 -0.711235 3 3 3
1.396449 3.384685 0.063911 111 111 111
1.018233 2.467974 -0.616366 3 3 3
1.417600 3.435950 0.194794 100 100 100
1.055019 2.557135 -0.537700 1 1 1
1.402745 3.399945 0.321779 64 64 64
0.937223 2.271623 -0.389209 1 1 1
1.310541 3.176463 0.421912 28 28 28
1.008458 2.444280 -0.324660 28 28 28
1.243855 3.014831 0.516547 49 49 49
1.028122 2.491943 -0.235843 26 26 26
1.171828 2.840252 0.597232 60 60 60
1.345996 3.262398 -0.184955 90 90 90
1.114111 2.700360 0.674403 57 57 57
1.370518 3.321834 -0.062724 100 100 100
1.062458 2.575165 0.746434 60 60 60
1.020796 2.427192 -0.705541 3 3 3
1.419455 3.375101 0.063911 114 114 114
1.035009 2.460986 -0.616366 4 4 4
1.439406 3.422539 0.194585 100 100 100
1.069356 2.542655 -0.536173 1 1 1
1.419676 3.375626 0.320385 56 56 56
0.951898 2.263370 -0.388896 1 1 1
1.339058 3.183938 0.424105 52 52 52
1.018915 2.422720 -0.322710 27 27 27
1.259753 2.995370 0.514669 49 49 49
1.038881 2.470194 -0.234449 25 25 25
1.195700 2.843069 0.599522 58 58 58
1.361977 3.238432 -0.184118 54 54 54
1.127933 2.681935 0.671704 59 59 59
1.387670 3.299525 -0.062480 80 80 80
1.078464 2.564312 0.745399 61 61 61
1.014056 2.411166 -0.700882 3 3 3
1.415579 3.365884 0.063736 78 78 78
1.035009 2.460986 -0.616366 4 4 4
1.447149 3.440949 0.195632 92 92 92
1.067834 2.539036 -0.535410 1 1 1
1.415041 3.364606 0.319339 56 56 56
0.956493 2.274296 -0.390773 1 1 1
1.336749 3.178448 0.423374 45 45 45
1.016607 2.417231 -0.321979 23 23 23
1.259753 2.995370 0.514669 46 46 46
1.028068 2.444482 -0.232009 26 26 26
1.197222 2.846688 0.600285 60 60 60
1.359654 3.232909 -0.183804 47 47 47
1.127933 2.681935 0.671704 59 59 59
1.380693 3.282935 -0.062165 58 58 58
1.076966 2.560750 0.744364 62 62 62
1.026296 2.393374 -0.697776 3 3 3
1.431950 3.339379 0.063422 55 55 55
1.046788 2.441163 -0.613217 3 3 3
1.464051 3.414242 0.194690 61 61 61
1.090176 2.542345 -0.537700 1 1 1
1.436926 3.350983 0.318990 53 53 53
0.973904 2.271194 -0.391399 1 1 1
1.360471 3.172687 0.423862 55 55 55
1.029546 2.400952 -0.320760 27 27 27
1.279076 2.982871 0.514044 48 48 48
1.040397 2.426258 -0.230963 25 25 25
1.213972 2.831043 0.598759 57 57 57
1.374319 3.204982 -0.182757 45 45 45
1.152773 2.688324 0.675303 67 67 67
1.397274 3.258514 -0.061886 57 57 57
1.091772 2.546067 0.742293 65 65 65
1.023251 2.386272 -0.695706 3 3 3
1.421705 3.315487 0.062968 52 52 52
1.036036 2.416089 -0.606918 3 3 3
1.457754 3.399557 0.193852 57 57 57
1.083986 2.527910 -0.534647 1 1 1
1.446348 3.372957 0.321082 64 64 64
0.972347 2.267563 -0.390773 1 1 1
1.354995 3.159916 0.422155 52 52 52
1.022505 2.384533 -0.318566 30 30 30
1.283747 2.993764 0.515921 48 48 48
1.037256 2.418934 -0.230265 26 26 26
1.210877 2.823826 0.597232 60 60 60
1.363300 3.179284 -0.181292 44 44 44
1.149701 2.681160 0.673503 58 58 58
1.389393 3.240135 -0.061537 55 55 55
1.093295 2.549618 0.743328 63 63 63
1.036790 2.371990 -0.693635 2 2 2
1.440011 3.294487 0.062759 51 51 51
1.048195 2.398083 -0.604219 3 3 3
1.469453 3.361846 0.192282 59 59 59
1.103180 2.523879 -0.535410 1 1 1
1.467466 3.357301 0.320559 57 57 57
0.986572 2.257099 -0.390148 1 1 1
1.381792 3.161293 0.423618 57 57 57
1.031971 2.360966 -0.316373 29 29 29
1.306990 2.990159 0.516859 51 51 51
1.046936 2.395203 -0.228697 24 24 24
1.232134 2.818901 0.597995 61 61 61
1.377463 3.151388 -0.180245 40 40 40
1.165268 2.665926 0.671704 59 59 59
1.407174 3.219363 -0.061328 51 51 51
1.115710 2.552545 0.746434 61 61 61
1.032148 2.361369 -0.690529 3 3 3
1.434405 3.281661 0.062515 54 54 54
1.041171 2.382013 -0.600169 3 3 3
1.459054 3.338055 0.190922 55 55 55
1.098462 2.513086 -0.533120 1 1 1
1.467466 3.357301 0.320559 66 66 66
0.980242 2.242619 -0.387645 1 1 1
1.377022 3.150380 0.422155 46 46 46
1.027201 2.350052 -0.314910 29 29 29
1.299869 2.973869 0.514044 50 50 50
1.042947 2.386075 -0.227825 26 26 26
1.232134 2.818901 0.597995 60 60 60
1.372663 3.140407 -0.179617 40 40 40
1.163707 2.662354 0.670804 57 57 57
1.394360 3.190046 -0.060769 53 53 53
1.114162 2.549004 0.745399 62 62 62
1.036437 2.325690 -0.682247 3 3 3
1.447269 3.247568 0.062061 51 51 51
1.054223 2.365601 -0.597920 3 3 3
1.476399 3.312935 0.190084 55 55 55
1.111623 2.494401 -0.530831 1 1 1
1.490642 3.344894 0.320385 77 77 77
1.001090 2.246373 -0.389522 1 1 1
1.403570 3.149511 0.423374 49 49 49
1.036719 2.326323 -0.312717 31 31 31
1.322725 2.968100 0.514669 48 48 48
1.050262 2.356713 -0.225733 27 27 27
1.252274 2.810012 0.597995 61 61 61
1.388596 3.115910 -0.178780 44 44 44
1.182729 2.653959 0.670804 60 60 60
1.412267 3.169027 -0.060560 57 57 57
1.127656 2.530379 0.742293 65 65 65
1.028573 2.308044 -0.677071 3 3 3
1.435059 3.220170 0.061537 57 57 57
1.049464 2.354921 -0.595220 3 3 3
1.469083 3.296516 0.189142 50 50 50
1.108426 2.487228 -0.529304 1 1 1
1.487398 3.337615 0.319687 94 94 94
0.997873 2.239156 -0.388270 1 1 1
1.397106 3.135006 0.421424 33 33 33
1.033487 2.319070 -0.311742 31 31 31
1.319508 2.960882 0.513418 48 48 48
1.041341 2.336694 -0.223816 29 29 29
1.250675 2.806426 0.597232 58 58 58
1.382092 3.101316 -0.177942 43 43 43
1.187488 2.664639 0.673503 56 56 56
1.404128 3.150762 -0.060211 55 55 55
1.127656 2.530379 0.742293 62 62 62
1.041066 2.293953 -0.675000 3 3 3
1.448681 3.192118 0.061188 55 55 55
1.059026 2.333527 -0.591621 3 3 3
1.484884 3.271890 0.188305 50 50 50
1.127764 2.484989 -0.530449 1 1 1
1.505965 3.318342 0.318816 71 71 71
1.006561 2.217921 -0.385767 1 1 1
1.416772 3.121808 0.420937 30 30 30
1.043505 2.299328 -0.310036 33 33 33
1.342897 2.959027 0.514669 46 46 46
1.055575 2.325923 -0.223467 30 30 30
1.269749 2.797848 0.597232 58 58 58
1.389964 3.062737 -0.176268 45 45 45
1.203988 2.652945 0.672604 56 56 56
1.418930 3.126564 -0.059932 56 56 56
1.149643 2.533200 0.745399 62 62 62
1.041066 2.293953 -0.675000 3 3 3
1.443722 3.181192 0.060979 57 57 57
1.050972 2.315782 -0.587122 3 3 3
1.470027 3.239153 0.186421 50 50 50
1.122896 2.474263 -0.528159 1 1 1
1.504318 3.314713 0.318467 72 72 72
1.004928 2.214324 -0.385142 1 1 1
1.415131 3.118193 0.420449 30 30 30
1.033661 2.277636 -0.307111 33 33 33
1.342897 2.959027 0.514669 49 49 49
1.053928 2.322295 -0.223119 30 30 30
1.269749 2.797848 0.597232 62 62 62
1.378408 3.037274 -0.174802 40 40 40
1.200766 2.645847 0.670804 57 57 57
1.413972 3.115638 -0.059722 58 58 58
1.148047 2.529681 0.744364 60 60 60
1.049363 2.271030 -0.670341 3 3 3
1.456955 3.153139 0.060630 57 57 57
1.066711 2.308574 -0.587122 4 4 4
1.481988 3.207315 0.185165 51 51 51
1.123242 2.430918 -0.520527 1 1 1
1.520160 3.289927 0.317073 67 67 67
1.027434 2.223571 -0.387957 1 1 1
1.443817 3.124706 0.422643 35 35 35
1.044144 2.259736 -0.305648 36 36 36
1.359693 2.942645 0.513418 42 42 42
1.064697 2.304215 -0.222073 32 32 32
1.293705 2.799833 0.599522 57 57 57
1.218748 2.637612 0.670804 58 58 58
1.418371 3.069636 -0.059024 56 56 56
1.170101 2.532330 0.747469 53 53 53
1.068811 2.313119 -0.682765 1 1 1
1.450244 3.138616 0.060350 55 55 55
1.058537 2.290884 -0.582623 1 1 1
1.477799 3.198250 0.184641 54 54 54
1.064774 2.304382 -0.493432 1 1 1
1.506789 3.260989 0.314284 63 63 63
1.021634 2.211019 -0.385767 1 1 1
1.449646 3.137320 0.424349 56 56 56
1.040814 2.252528 -0.304673 26 26 26
1.359693 2.942645 0.513418 28 28 28
1.057176 2.287937 -0.220504 39 39 39
1.292058 2.796269 0.598759 60 60 60
1.074839 2.326165 -0.134294 16 16 16
1.217113 2.634074 0.669904 55 55 55
1.408306 3.047852 -0.058605 52 52 52
1.162808 2.516547 0.742811 47 47 47
1.460201 3.103084 0.059862 54 54 54
1.491587 3.169783 0.183595 57 57 57
1.521034 3.232363 0.312540 60 60 60
1.468977 3.121735 0.423618 52 52 52
1.053133 2.238022 -0.303698 32 32 32
1.383568 2.940231 0.514669 28 28 28
1.057853 2.248051 -0.217366 36 36 36
1.306532 2.776522 0.596469 61 61 61
1.086800 2.309568 -0.133771 28 28 28
1.238792 2.632566 0.671704 60 60 60
1.422738 3.023471 -0.058326 56 56 56
1.180348 2.508368 0.742811 42 42 42
1.450835 3.083181 0.059478 51 51 51
1.484784 3.155326 0.182757 54 54 54
1.512551 3.214335 0.310797 60 60 60
1.459680 3.101977 0.420937 45 45 45
1.032848 2.194914 -0.297849 32 32 32
1.382726 2.938443 0.514357 40 40 40
1.056156 2.244446 -0.217018 33 33 33
1.306532 2.776522 0.596469 60 60 60
1.071493 2.277039 -0.131887 30 30 30
1.240451 2.636093 0.672604 57 57 57
1.419332 3.016234 -0.058186 56 56 56
1.175413 2.497880 0.739705 50 50 50
1.468868 3.065764 0.059338 59 59 59
1.494694 3.119667 0.181292 57 57 57
1.528067 3.189323 0.309403 60 60 60
1.483873 3.097082 0.421668 52 52 52
1.008691 2.105300 -0.286637 38 38 38
1.405767 2.934063 0.515295 50 50 50
1.074382 2.242408 -0.217541 41 41 41
1.325884 2.767333 0.596469 58 58 58
1.082186 2.258696 -0.131259 31 31 31
1.250404 2.609794 0.668105 57 57 57
1.435170 2.995431 -0.057977 58 58 58
1.194492 2.493098 0.740740 63 63 63
0.934058 1.949529 -0.579237 1 1 1
1.461955 3.051336 0.059059 52 52 52
0.976746 2.038627 -0.521886 1 1 1
1.486064 3.101655 0.180245 57 57 57
0.956028 1.995384 -0.430083 1 1 1
1.521180 3.174948 0.308008 60 60 60
0.995218 2.077181 -0.364805 1 1 1
1.483873 3.097082 0.421668 52 52 52
0.986390 2.058754 -0.280299 24 24 24
1.402353 2.926937 0.514044 50 50 50
1.067495 2.228034 -0.216146 49 49 49
1.329277 2.774415 0.597995 57 57 57
1.083049 2.260497 -0.131363 42 42 42
1.253772 2.616824 0.669904 58 58 58
1.424802 2.973791 -0.057558 55 55 55
1.200335 2.505293 0.744364 62 62 62
0.952727 1.953379 -0.582343 1 1 1
1.477086 3.028475 0.058815 55 55 55
0.955075 1.958195 -0.502991 1 1 1
1.500677 3.076843 0.179408 54 54 54
0.987147 2.023952 -0.437716 1 1 1
1.527587 3.132018 0.304871 55 55 55
0.981985 2.013368 -0.354793 1 1 1
1.507199 3.090216 0.422155 52 52 52
0.996387 2.042897 -0.279081 22 22 22
1.419289 2.909974 0.512792 49 49 49
1.087391 2.229481 -0.217018 76 76 76
1.350335 2.768597 0.598759 58 58 58
1.100555 2.256472 -0.131573 63 63 63
1.273719 2.611510 0.670804 59 59 59
1.435009 2.942204 -0.057139 56 56 56
1.212715 2.486434 0.741258 62 62 62
0.939177 1.925597 -0.574061 2 2 2
1.465690 3.005110 0.058361 59 59 59
0.960201 1.968704 -0.505690 1 1 1
1.492797 3.060687 0.178466 51 51 51
0.968213 1.985132 -0.429320 1 1 1
1.520600 3.117692 0.303476 57 57 57
0.981119 2.011593 -0.354480 1 1 1
1.507199 3.090216 0.422155 52 52 52
1.002479 2.055386 -0.280787 39 39 39
1.419289 2.909974 0.512792 49 49 49
1.083023 2.220527 -0.216146 78 78 78
1.346892 2.761538 0.597232 60 60 60
1.101430 2.258267 -0.131677 57 57 57
1.275427 2.615013 0.671704 59 59 59
1.431502 2.935014 -0.057000 57 57 57
1.214409 2.489907 0.742293 65 65 65
0.951738 1.917264 -0.573543 1 1 1
1.475075 2.971519 0.057907 57 57 57
0.960058 1.934024 -0.498492 2 2 2
1.507912 3.037668 0.177733 57 57 57
0.974192 1.962497 -0.425886 3 3 3
1.537013 3.096292 0.302430 53 53 53
0.992504 1.999386 -0.353542 3 3 3
1.527853 3.077840 0.421912 60 60 60
1.009742 2.034113 -0.278837 25 25 25
1.446596 2.914149 0.515295 50 50 50
1.099385 2.214697 -0.216321 58 58 58
1.359155 2.738000 0.594179 61 61 61
1.114505 2.245155 -0.131363 52 52 52
1.295385 2.609537 0.672604 57 57 57
1.444844 2.910620 -0.056720 61 61 61
1.231762 2.481368 0.742293 62 62 62
1.469740 2.960772 0.057698 57 57 57
1.494591 3.010834 0.176163 51 51 51
0.983794 1.981841 -0.430083 1 1 1
1.527268 3.076662 0.300513 50 50 50
0.994260 2.002925 -0.354168 1 1 1
1.528736 3.079618 0.422155 63 63 63
0.994737 2.003885 -0.274694 20 20 20
1.444840 2.910611 0.514669 50 50 50
1.102043 2.220051 -0.216843 54 54 54
1.362647 2.745034 0.595706 61 61 61
1.118057 2.252311 -0.131782 51 51 51
1.291919 2.602555 0.670804 59 59 59
1.441288 2.903455 -0.056581 61 61 61
1.231762 2.481368 0.742293 65 65 65
1.482649 2.936419 0.057418 61 61 61
1.510549 2.991676 0.175639 54 54 54
1.544583 3.059081 0.299816 48 48 48
1.555031 3.079773 0.423618 81 81 81
1.005670 1.991752 -0.273962 22 22 22
1.459276 2.890128 0.512792 49 49 49
1.122517 2.223169 -0.217889 52 52 52
1.386609 2.746211 0.597995 58 58 58
1.137863 2.253563 -0.132305 47 47 47
1.304334 2.583263 0.668105 57 57 57
1.442991 2.857876 -0.055883 57 57 57
1.253848 2.483273 0.745399 63 63 63
1.479043 2.929279 0.057279 57 57 57
1.503348 2.977413 0.174802 55 55 55
1.532909 3.035960 0.297550 52 52 52
1.552347 3.074457 0.422887 79 79 79
1.001196 1.982892 -0.272744 20 20 20
1.457495 2.886602 0.512166 48 48 48
1.120721 2.219612 -0.217541 53 53 53
1.386609 2.746211 0.597995 58 58 58
1.141464 2.260695 -0.132724 45 45 45
1.307848 2.590221 0.669904 56 56 56
1.435781 2.843596 -0.055603 63 63 63
1.248623 2.472926 0.742293 62 62 62
1.485342 2.890163 0.056720 57 57 57
1.520963 2.959474 0.174383 55 55 55
1.547308 3.010736 0.296155 55 55 55
1.570678 3.056208 0.421912 79 79 79
1.012638 1.970380 -0.272012 16 16 16
1.481726 2.883126 0.513418 48 48 48
1.111986 2.163690 -0.212834 26 26 26
1.404430 2.732726 0.597232 58 58 58
1.140266 2.218717 -0.130735 23 23 23
1.329912 2.587729 0.671704 59 59 59
1.454264 2.829692 -0.055534 62 62 62
1.262755 2.457055 0.740222 65 65 65
1.475287 2.870599 0.056336 59 59 59
0.944211 1.837236 -0.476896 1 1 1
1.510921 2.939934 0.173232 59 59 59
1.011369 1.967912 -0.430083 1 1 1
1.536380 2.989472 0.294063 55 55 55
1.561604 3.038552 0.419474 64 64 64
1.014453 1.973911 -0.272500 11 11 11
1.479920 2.879612 0.512792 48 48 48
1.087396 2.115844 -0.208128 36 36 36
1.400841 2.725741 0.595706 58 58 58
1.100096 2.140556 -0.126130 30 30 30
1.333475 2.594662 0.673503 58 58 58
1.446952 2.815463 -0.055254 62 62 62
1.266287 2.463928 0.742293 62 62 62
0.987771 1.890236 -0.571472 1 1 1
1.492014 2.855173 0.056232 57 57 57
0.963915 1.844583 -0.480495 1 1 1
1.517947 2.904799 0.171767 61 61 61
1.002919 1.919222 -0.420925 1 1 1
1.553002 2.971881 0.293366 57 57 57
1.033813 1.978343 -0.353542 1 1 1
1.576734 3.017296 0.418012 64 64 64
1.023268 1.958164 -0.271281 6 6 6
1.504975 2.879976 0.514669 50 50 50
1.100850 2.106628 -0.207954 38 38 38
1.419362 2.716143 0.595706 41 41 41
1.106316 2.117087 -0.125188 31 31 31
1.343885 2.571709 0.669904 55 55 55
1.458673 2.791371 -0.054975 63 63 63
1.284818 2.458676 0.743328 63 63 63
0.987771 1.890236 -0.571472 1 1 1
1.488310 2.848084 0.056092 57 57 57
0.978356 1.872218 -0.487694 1 1 1
1.510547 2.890638 0.170929 51 51 51
0.995644 1.905302 -0.417872 1 1 1
1.547465 2.961286 0.292320 60 60 60
1.027409 1.966087 -0.351352 1 1 1
1.570298 3.004981 0.416306 59 59 59
1.021429 1.954645 -0.270794 3 3 3
1.499486 2.869472 0.512792 48 48 48
1.099005 2.103096 -0.207605 35 35 35
1.422089 2.721363 0.596851 41 41 41
1.102616 2.110006 -0.124769 32 32 32
1.342080 2.568254 0.669004 57 57 57
1.449412 2.773648 -0.054626 58 58 58
1.286608 2.462101 0.744364 62 62 62
0.979184 1.842353 -0.559049 1 1 1
1.498772 2.819967 0.055743 57 57 57
0.971282 1.827484 -0.477796 6 6 6
0.988651 1.860165 -0.409476 1 1 1
1.553140 2.922261 0.289531 60 60 60
1.048526 1.972821 -0.353855 1 1 1
1.584717 2.981675 0.414600 57 57 57
1.033187 1.943961 -0.270306 2 2 2
1.518555 2.857189 0.512479 51 51 51
1.098699 2.067223 -0.204816 36 36 36
1.441975 2.713102 0.597232 50 50 50
1.113570 2.095203 -0.124350 32 32 32
1.359977 2.558822 0.669004 56 56 56
1.464986 2.756398 -0.054486 25 25 25
1.298325 2.442823 0.741258 65 65 65
0.943824 1.775823 -0.538861 2 2 2
0.953905 1.794789 -0.469248 37 37 37
1.019835 1.918839 0.113883 25 25 25
0.992337 1.867100 -0.411003 1 1 1
1.543789 2.904668 0.287788 60 60 60
1.042964 1.962355 -0.351978 1 1 1
1.579127 2.971157 0.413137 57 57 57
1.040640 1.957984 -0.272256 2 2 2
1.522263 2.864167 0.513731 52 52 52
1.093089 2.056667 -0.203770 40 40 40
1.437368 2.704434 0.595324 57 57 57
1.064828 2.003494 -0.118907 9 9 9
1.367294 2.572589 0.672604 58 58 58
0.975093 1.834656 -0.036266 5 5 5
1.296512 2.439411 0.740222 67 67 67
0.948851 1.755595 -0.534720 28 28 28
1.009746 1.868265 0.037069 19 19 19
0.961778 1.779514 -0.466998 50 50 50
1.024660 1.895859 0.112941 24 24 24
1.001613 1.853218 -0.409476 1 1 1
1.558346 2.883303 0.286742 60 60 60
1.066030 1.972404 -0.355106 1 1 1
1.589449 2.940851 0.410456 63 63 63
1.056172 1.954164 -0.272744 2 2 2
1.541282 2.851732 0.513418 49 49 49
1.100789 2.036716 -0.202550 41 41 41
1.451546 2.685698 0.593416 56 56 56
0.965782 1.786922 -0.106451 29 29 29
1.383367 2.559552 0.671704 56 56 56
0.987878 1.827804 -0.036266 23 23 23
1.319022 2.440498 0.743328 62 62 62
0.946095 1.750496 -0.533167 43 43 43
1.005943 1.861228 0.036929 30 30 30
0.959925 1.776085 -0.466099 62 62 62
1.017062 1.881803 0.112104 27 27 27
0.974543 1.803131 -0.398409 15 15 15
1.555504 2.878045 0.286219 58 58 58
1.069787 1.979356 -0.356358 1 1 1
1.577179 2.918148 0.407287 56 56 56
1.047677 1.938447 -0.270550 2 2 2
1.543161 2.855207 0.514044 48 48 48
1.101736 2.038469 -0.202724 37 37 37
1.454346 2.690879 0.594561 57 57 57
0.955336 1.767594 -0.105300 29 29 29
1.376881 2.547551 0.668555 50 50 50
0.975517 1.804934 -0.035812 27 27 27
1.319022 2.440498 0.743328 63 63 63
0.952710 1.733690 -0.530061 55 55 55
1.021801 1.859418 0.037034 33 33 33
0.962916 1.752262 -0.461600 52 52 52
1.023442 1.862404 0.111371 26 26 26
0.975761 1.775636 -0.393830 45 45 45
1.565963 2.849654 0.284476 58 58 58
1.090239 1.983957 -0.358548 1 1 1
1.598469 2.908806 0.407531 66 66 66
1.064052 1.936304 -0.271281 2 2 2
1.561154 2.840902 0.513418 46 46 46
1.109224 2.018505 -0.201504 41 41 41
1.474987 2.684102 0.595324 57 57 57
0.967653 1.760882 -0.105300 30 30 30
1.391817 2.532753 0.667205 39 39 39
0.986168 1.794575 -0.035743 31 31 31
1.337888 2.434616 0.744364 62 62 62
0.936894 1.704908 -0.521262 51 51 51
1.006392 1.831378 0.036476 34 34 34
0.965732 1.757386 -0.462949 58 58 58
1.020556 1.857153 0.111057 28 28 28
0.971979 1.768754 -0.392303 62 62 62
1.550610 2.821716 0.281687 51 51 51
1.092142 1.987420 -0.359174 1 1 1
1.594645 2.901847 0.406556 66 66 66
1.064052 1.936304 -0.271281 2 2 2
1.555446 2.830515 0.511541 48 48 48
1.101548 2.004536 -0.200110 41 41 41
1.477824 2.689263 0.596469 61 61 61
0.963805 1.753880 -0.104881 29 29 29
1.396510 2.541292 0.669454 40 40 40
0.976538 1.777050 -0.035393 34 34 34
1.332306 2.424458 0.741258 66 66 66
0.946889 1.694953 -0.520226 51 51 51
1.010376 1.808595 0.036161 35 35 35
0.973225 1.742095 -0.460700 60 60 60
1.029600 1.843008 0.110638 28 28 28
0.982388 1.758498 -0.391540 54 54 54
1.567357 2.805604 0.281164 53 53 53
1.095392 1.960777 -0.355732 1 1 1
1.607119 2.876780 0.404606 66 66 66
1.078512 1.930562 -0.271525 2 2 2
1.581912 2.831659 0.513731 54 54 54
1.111628 1.989840 -0.199412 48 48 48
1.496562 2.678881 0.596469 58 58 58
0.974078 1.743622 -0.104672 30 30 30
1.414217 2.531481 0.669454 41 41 41
0.990870 1.773680 -0.035463 33 33 33
1.351083 2.418470 0.742293 63 63 63
0.945947 1.693267 -0.519709 51 51 51
1.006475 1.801612 0.036022 35 35 35
0.964671 1.726783 -0.456651 56 56 56
1.030574 1.844752 0.110743 30 30 30
0.979516 1.753356 -0.390395 58 58 58
1.557640 2.788211 0.279421 57 57 57
1.091539 1.953879 -0.354480 1 1 1
1.591629 2.849052 0.400706 63 63 63
1.080449 1.934028 -0.272012 2 2 2
1.585766 2.838557 0.514982 54 54 54
1.106770 1.981143 -0.198541 44 44 44
1.494647 2.675453 0.595706 60 60 60
0.966285 1.729673 -0.103835 32 32 32
1.419920 2.541689 0.672154 51 51 51
0.986969 1.766697 -0.035324 34 34 34
1.352968 2.421843 0.743328 63 63 63
0.955837 1.683262 -0.518673 48 48 48
1.017053 1.791064 0.035952 35 35 35
0.973816 1.714923 -0.455301 71 71 71
1.032579 1.818407 0.109591 42 42 42
0.986885 1.737939 -0.388487 54 54 54
1.572148 2.768606 0.278550 58 58 58
1.107103 1.949647 -0.355106 1 1 1
1.603638 2.824061 0.398756 66 66 66
1.091964 1.922985 -0.271525 2 2 2
1.602617 2.822264 0.514044 57 57 57
1.114671 1.962973 -0.197495 46 46 46
1.515228 2.668368 0.596469 60 60 60
0.972420 1.712464 -0.103207 34 34 34
1.430893 2.519852 0.669004 59 59 59
0.995329 1.752809 -0.035184 33 33 33
1.371750 2.415699 0.744364 63 63 63
0.950114 1.673182 -0.515568 49 49 49
1.014090 1.785848 0.035847 34 34 34
0.971891 1.711534 -0.454401 72 72 72
1.028635 1.811460 0.109173 48 48 48
0.984947 1.734524 -0.387724 68 68 68
1.564277 2.754745 0.277155 47 47 47
1.091497 1.922163 -0.350100 1 1 1
1.599717 2.817156 0.397782 66 66 66
1.091964 1.922985 -0.271525 2 2 2
1.596765 2.811957 0.512166 60 60 60
1.091059 1.921392 -0.193311 44 44 44
1.515228 2.668368 0.596469 60 60 60
0.971433 1.710727 -0.103102 36 36 36
1.432818 2.523241 0.669904 58 58 58
0.983480 1.731942 -0.034765 36 36 36
1.369842 2.412339 0.743328 62 62 62
0.953081 1.651450 -0.510909 52 52 52
1.020536 1.768333 0.035638 29 29 29
0.983816 1.704707 -0.454401 72 72 72
1.043252 1.807695 0.109382 48 48 48
0.990162 1.715703 -0.385053 77 77 77
1.036759 1.796444 -0.328512 7 7 7
1.611408 2.792165 0.395832 63 63 63
1.102385 1.910157 -0.270794 2 2 2
1.620307 2.807585 0.513418 76 76 76
1.072577 1.858507 -0.187733 44 44 44
1.535782 2.661125 0.597232 58 58 58
0.982354 1.702174 -0.102997 34 34 34
1.448450 2.509801 0.669004 55 55 55
0.993548 1.721570 -0.034695 36 36 36
1.380856 2.392678 0.740222 65 65 65
0.951149 1.648103 -0.509874 52 52 52
1.009541 1.749281 0.035254 27 27 27
0.982842 1.703019 -0.453951 28 28 28
1.039259 1.800775 0.108963 42 42 42
0.990162 1.715703 -0.385053 43 43 43
1.049672 1.818818 0.183724 15 15 15
1.017999 1.763937 -0.322568 20 20 20
1.606446 2.783569 0.394613 60 60 60
1.107347 1.918754 -0.272012 2 2 2
1.622281 2.811007 0.514044 59 59 59
1.059631 1.836074 -0.185467 41 41 41
1.531857 2.654324 0.595706 60 60 60
0.977363 1.693524 -0.102474 36 36 36
1.454295 2.519928 0.671704 37 37 37
0.989550 1.714642 -0.034556 33 33 33
1.384719 2.399370 0.742293 61 61 61
0.960106 1.638425 -0.508838 52 52 52
1.022131 1.744272 0.035289 27 27 27
1.042091 1.778334 0.108021 39 39 39
1.059697 1.808378 0.183376 32 32 32
1.016692 1.734990 -0.318501 9 9 9
1.605803 2.740312 0.389982 52 52 52
1.122055 1.914793 -0.272500 2 2 2
1.639890 2.798481 0.513731 64 64 64
1.052646 1.796345 -0.182156 31 31 31
1.551412 2.647493 0.596469 60 60 60
0.981505 1.674943 -0.101741 42 42 42
1.468020 2.505183 0.670354 39 39 39
0.998878 1.704591 -0.034486 33 33 33
1.402555 2.393467 0.743328 61 61 61
0.960106 1.638425 -0.508838 54 54 54
1.020109 1.740822 0.035219 27 27 27
1.113330 1.899904 -0.508389 4 4 4
1.036033 1.767995 0.107393 37 37 37
1.147430 1.958095 -0.441150 4 4 4
1.056675 1.803221 0.182853 28 28 28
1.015693 1.733286 -0.318188 22 22 22
1.599782 2.730036 0.388519 57 57 57
1.115030 1.902804 -0.270794 2 2 2
1.630902 2.783142 0.510915 60 60 60
1.057682 1.804940 -0.183027 41 41 41
1.553397 2.650881 0.597232 60 60 60
0.973426 1.661157 -0.100904 35 35 35
1.466049 2.501821 0.669454 42 42 42
0.996856 1.701140 -0.034416 30 30 30
1.404508 2.396801 0.744364 63 63 63
0.967567 1.625043 -0.506768 60 60 60
1.026099 1.723349 0.035010 27 27 27
1.056780 1.774877 -0.476896 7 7 7
1.040176 1.746990 0.106556 31 31 31
1.157054 1.943289 -0.439624 4 4 4
1.058026 1.776969 0.180935 27 27 27
1.028780 1.727850 -0.318501 39 39 39
1.612708 2.708567 0.387057 66 66 66
1.131333 1.900090 -0.271525 2 2 2
1.642207 2.758110 0.508412 59 59 59
1.063122 1.785529 -0.181807 35 35 35
1.569857 2.636598 0.596469 60 60 60
0.982956 1.650889 -0.100694 42 42 42
1.486470 2.496548 0.670804 56 56 56
0.996431 1.673521 -0.033997 31 31 31
1.423183 2.390257 0.745399 62 62 62
0.961637 1.615083 -0.503662 54 54 54
1.025076 1.721630 0.034975 30 30 30
0.992974 1.667714 -0.448103 41 41 41
1.038132 1.743558 0.106347 37 37 37
1.148015 1.928107 -0.436189 5 5 5
1.049871 1.763274 0.179541 27 27 27
1.021705 1.715969 -0.316310 39 39 39
1.608646 2.701744 0.386082 63 63 63
1.127271 1.893268 -0.270550 2 2 2
1.631091 2.739440 0.504970 55 55 55
1.052929 1.768410 -0.180064 37 37 37
1.571866 2.639972 0.597232 56 56 56
0.985000 1.654321 -0.100904 35 35 35
1.486470 2.496548 0.670804 56 56 56
0.992339 1.666648 -0.033858 36 36 36
1.413300 2.373658 0.740222 62 62 62
0.969169 1.601550 -0.501591 56 56 56
1.023911 1.692010 0.034521 28 28 28
0.993784 1.642226 -0.443154 59 59 59
1.055753 1.744629 0.106870 56 56 56
1.147552 1.896328 -0.430847 4 4 4
1.058336 1.748898 0.178844 27 27 27
1.028845 1.700164 -0.314746 24 24 24
1.625883 2.686767 0.385595 66 66 66
1.145929 1.893644 -0.271769 2 2 2
1.645538 2.719248 0.503406 56 56 56
1.061431 1.754012 -0.179367 33 33 33
1.588684 2.625297 0.596469 58 58 58
0.994744 1.643813 -0.100694 31 31 31
1.508333 2.492516 0.672604 56 56 56
1.004240 1.659505 -0.033858 36 36 36
1.430249 2.363484 0.740222 62 62 62
0.965168 1.594939 -0.499521 60 60 60
1.017699 1.681745 0.034311 27 27 27
0.985713 1.628889 -0.439554 59 59 59
1.048514 1.732668 0.106137 48 48 48
1.131289 1.869453 -0.424741 3 3 3
1.054210 1.742080 0.178146 25 25 25
1.025777 1.695094 -0.313808 8 8 8
1.612522 2.664689 0.382426 70 70 70
1.147984 1.897041 -0.272256 2 2 2
1.643493 2.715868 0.502780 57 57 57
1.057304 1.747193 -0.178669 31 31 31
1.582585 2.615219 0.594179 60 60 60
0.990608 1.636978 -0.100276 23 23 23
1.506315 2.489182 0.671704 56 56 56
1.000099 1.652661 -0.033718 36 36 36
1.436251 2.373401 0.743328 61 61 61
0.974256 1.584870 -0.498485 63 63 63
1.027320 1.671192 0.034242 28 28 28
0.989917 1.610346 -0.436405 62 62 62
1.051171 1.709992 0.105195 18 18 18
1.092906 1.777884 -0.405660 3 3 3
1.062173 1.727888 0.177449 26 26 26
1.610294 2.619544 0.377551 64 64 64
1.158081 1.883907 -0.271525 2 2 2
1.647930 2.680768 0.498400 56 56 56
1.067390 1.736375 -0.178321 28 28 28
1.604917 2.610797 0.595706 61 61 61
0.999920 1.626619 -0.100066 21 21 21
1.519574 2.471965 0.669904 57 57 57
1.011612 1.645639 -0.033718 34 34 34
1.456832 2.369899 0.745399 62 62 62
0.976280 1.588162 -0.499521 65 65 65
1.030462 1.676303 0.034346 38 38 38
0.992979 1.615327 -0.437755 48 48 48
1.088825 1.771245 0.108963 18 18 18
1.007571 1.639065 -0.373986 26 26 26
1.061129 1.726191 0.177275 28 28 28
1.243448 2.022777 -0.376068 1 1 1
1.603017 2.607706 0.375845 61 61 61
1.152883 1.875452 -0.270306 2 2 2
1.634482 2.658892 0.494333 54 54 54
1.067390 1.736375 -0.178321 27 27 27
1.613142 2.624177 0.598759 57 57 57
1.002012 1.630022 -0.100276 20 20 20
1.519574 2.471965 0.669904 56 56 56
0.999046 1.625196 -0.033299 36 36 36
1.456832 2.369899 0.745399 61 61 61
1.076357 1.723871 -0.544555 9 9 9
1.037903 1.662284 0.034207 35 35 35
1.152996 1.846614 0.114092 19 19 19
1.013790 1.623665 -0.372078 34 34 34
1.061547 1.700151 0.175357 26 26 26
1.268001 2.030803 -0.379197 1 1 1
1.625389 2.603187 0.376820 61 61 61
1.168051 1.870725 -0.270794 2 2 2
1.645681 2.635687 0.492143 57 57 57
1.071044 1.715361 -0.176926 26 26 26
1.629343 2.609521 0.597995 61 61 61
1.017599 1.629764 -0.100694 19 19 19
1.538858 2.464602 0.670804 56 56 56
1.010367 1.618182 -0.033299 39 39 39
1.467202 2.349839 0.742293 62 62 62
1.132631 1.813997 -0.573025 13 13 13
1.028372 1.647018 0.033893 37 37 37
1.170399 1.874486 -0.510189 22 22 22
1.186846 1.900826 0.117442 22 22 22
1.023149 1.638652 -0.375512 62 62 62
1.056271 1.691700 0.174486 28 28 28
1.268001 2.030803 -0.379197 1 1 1
1.612772 2.582981 0.373895 61 61 61
1.174359 1.880828 -0.272256 2 2 2
1.641496 2.628985 0.490891 56 56 56
1.069989 1.713671 -0.176752 23 23 23
1.627264 2.606190 0.597232 60 60 60
1.017599 1.629764 -0.100694 18 18 18
1.545051 2.474520 0.673503 59 59 59
1.004013 1.608005 -0.033090 37 37 37
1.469248 2.353116 0.743328 62 62 62
1.158398 1.827457 -0.579755 26 26 26
1.034206 1.631535 0.033718 41 41 41
1.176871 1.856600 -0.507490 21 21 21
1.174093 1.852218 0.114930 21 21 21
1.027972 1.621701 -0.373222 64 64 64
1.066695 1.682789 0.174311 31 31 31
1.283910 2.025461 -0.379823 1 1 1
1.623940 2.561884 0.372433 61 61 61
1.186071 1.871114 -0.272012 2 2 2
1.653007 2.607740 0.489014 57 57 57
1.077362 1.699617 -0.176055 17 17 17
1.646017 2.596712 0.597614 51 51 51
1.022253 1.612678 -0.100066 19 19 19
1.561858 2.463946 0.673503 57 57 57
1.008511 1.591000 -0.032880 42 42 42
1.485231 2.343061 0.743328 63 63 63
1.163569 1.835615 -0.582343 7 7 7
1.030994 1.626468 0.033613 43 43 43
1.170611 1.846725 -0.504790 7 7 7
1.055401 1.664972 0.103311 18 18 18
1.023768 1.615068 -0.371696 66 66 66
1.060294 1.672692 0.173266 27 27 27
1.297658 2.047151 -0.383890 1 1 1
1.613312 2.545118 0.369995 61 61 61
1.182883 1.866084 -0.271281 2 2 2
1.645604 2.596061 0.486824 55 55 55
1.080562 1.704665 -0.176578 9 9 9
1.641812 2.590079 0.596087 42 42 42
1.022253 1.612678 -0.100066 20 20 20
1.555598 2.454070 0.670804 58 58 58
1.008511 1.591000 -0.032880 42 42 42
1.487300 2.346324 0.744364 60 60 60
1.170810 1.819530 -0.579755 11 11 11
1.046369 1.626139 0.033753 43 43 43
1.189481 1.848547 -0.507490 12 12 12
1.054821 1.639274 0.102160 34 34 34
1.028363 1.598157 -0.369406 64 64 64
1.069499 1.662085 0.172917 31 31 31
1.309425 2.034948 -0.383264 1 1 1
1.626302 2.527400 0.369020 63 63 63
1.195557 1.857989 -0.271281 2 2 2
1.651479 2.566527 0.483382 56 56 56
1.093218 1.698946 -0.176752 4 4 4
1.660467 2.580494 0.596469 53 53 53
1.037529 1.612401 -0.100485 18 18 18
1.572267 2.443425 0.670804 57 57 57
1.009578 1.568964 -0.032566 43 43 43
1.505327 2.339395 0.745399 57 57 57
1.157220 1.798410 -0.573025 10 10 10
1.042041 1.619413 0.033613 43 43 43
1.181045 1.835436 -0.503890 9 9 9
1.048337 1.629197 0.101532 37 37 37
1.023051 1.589902 -0.367498 60 60 60
1.061952 1.650357 0.171697 38 38 38
1.322252 2.054883 -0.387019 2 2 2
1.623079 2.522392 0.368289 57 57 57
1.200928 1.866336 -0.272500 2 2 2
1.642927 2.553237 0.480880 50 50 50
1.093218 1.698946 -0.176752 3 3 3
1.665778 2.588749 0.598377 71 71 71
1.039690 1.615760 -0.100694 19 19 19
1.574376 2.446702 0.671704 55 55 55
1.016071 1.579053 -0.032776 44 44 44
1.506372 2.341020 0.745916 47 47 47
1.166143 1.783412 -0.570955 10 10 10
1.045129 1.598341 0.033334 43 43 43
1.185936 1.813682 -0.500291 9 9 9
1.060251 1.621468 0.101532 37 37 37
1.031455 1.577430 -0.366353 64 64 64
1.074021 1.642528 0.171697 45 45 45
1.334036 2.040175 -0.386080 2 2 2
1.636094 2.502119 0.367070 50 50 50
1.211318 1.852499 -0.271769 2 2 2
1.658356 2.536166 0.479941 54 54 54
1.099100 1.680881 -0.175706 3 3 3
1.679338 2.568253 0.596469 76 76 76
1.051507 1.608095 -0.100694 19 19 19
1.594401 2.438358 0.672604 56 56 56
1.021052 1.561521 -0.032566 43 43 43
1.517149 2.320214 0.742811 42 42 42
1.160857 1.775327 -0.568367 12 12 12
1.034185 1.581605 0.032985 45 45 45
1.180604 1.805526 -0.498042 16 16 16
1.060251 1.621468 0.101532 39 39 39
1.031455 1.577430 -0.366353 66 66 66
1.071841 1.639193 0.171348 52 52 52
1.330793 2.035215 -0.385142 2 2 2
1.220009 1.865790 -0.273719 2 2 2
1.656194 2.532859 0.479315 55 55 55
1.105642 1.690887 -0.176752 3 3 3
1.672891 2.558394 0.594179 68 68 68
1.042762 1.594722 -0.099857 20 20 20
1.594401 2.438358 0.672604 57 57 57
1.025430 1.568216 -0.032706 45 45 45
1.515034 2.316980 0.741775 45 45 45
1.178565 1.775227 -0.570955 15 15 15
1.049625 1.581010 0.033125 43 43 43
1.196413 1.802111 -0.499391 16 16 16
1.061603 1.599051 0.100590 40 40 40
1.038099 1.563648 -0.364827 52 52 52
1.083258 1.631670 0.171348 52 52 52
1.351524 2.035749 -0.387019 2 2 2
1.095760 1.650501 0.243251 16 16 16
1.226417 1.847305 -0.272256 2 2 2
1.665096 2.508069 0.476812 54 54 54
1.115216 1.679807 -0.176403 3 3 3
1.686368 2.540111 0.592653 75 75 75
1.056079 1.590732 -0.100066 21 21 21
1.607074 2.420673 0.670804 58 58 58
1.029717 1.551023 -0.032496 44 44 44
1.531173 2.306347 0.741775 60 60 60
1.183908 1.783274 -0.573543 10 10 10
1.048519 1.579344 0.033090 47 47 47
1.192102 1.795617 -0.497592 7 7 7
1.054975 1.589068 0.099962 42 42 42
1.076646 1.621711 0.170302 48 48 48
1.362450 2.052206 -0.390148 2 2 2
1.092466 1.645540 0.242520 29 29 29
1.224221 1.843997 -0.271769 2 2 2
1.655262 2.493258 0.473996 56 56 56
1.117420 1.683127 -0.176752 3 3 3
1.682024 2.533568 0.591126 68 68 68
1.061603 1.599051 -0.100590 23 23 23
1.607074 2.420673 0.670804 55 55 55
1.016444 1.531031 -0.032078 45 45 45
1.534378 2.311175 0.743328 63 63 63
1.181986 1.754347 -0.566814 6 6 6
1.054776 1.565537 0.032950 49 49 49
1.201030 1.782613 -0.496242 5 5 5
1.063535 1.578537 0.099752 42 42 42
1.211072 1.797518 -0.421306 6 6 6
1.072074 1.591212 0.167862 46 46 46
1.371972 2.036332 -0.388896 2 2 2
1.099205 1.631480 0.241545 25 25 25
1.237853 1.837268 -0.272012 2 2 2
1.663365 2.468827 0.471493 56 56 56
1.122171 1.665568 -0.175706 3 3 3
1.697037 2.518804 0.590363 67 67 67
1.073579 1.593445 -0.100694 25 25 25
1.623513 2.409678 0.670804 56 56 56
1.020138 1.514126 -0.031868 46 46 46
1.550074 2.300677 0.743328 62 62 62
1.176589 1.746336 -0.564226 5 5 5
1.048072 1.555587 0.032741 49 49 49
1.202119 1.784229 -0.496692 4 4 4
1.066883 1.583506 0.100066 44 44 44
1.213266 1.800774 -0.422069 6 6 6
1.068734 1.586255 0.167339 41 41 41
1.369765 2.033055 -0.388270 2 2 2
1.098096 1.629834 0.241301 27 27 27
1.242290 1.843853 -0.272987 2 2 2
1.658950 2.462274 0.470242 57 57 57
1.117718 1.658958 -0.175009 3 3 3
1.683873 2.499266 0.585784 65 65 65
1.078042 1.600070 -0.101113 34 34 34
1.630047 2.419375 0.673503 56 56 56
1.020138 1.514126 -0.031868 45 45 45
1.554392 2.307086 0.745399 61 61 61
1.187964 1.736277 -0.563708 5 5 5
1.052401 1.538145 0.032531 47 47 47
1.202751 1.757889 -0.491743 5 5 5
1.073675 1.569238 0.099648 44 44 44
1.219469 1.782324 -0.419780 3 3 3
1.077808 1.575278 0.166990 38 38 38
1.379816 2.016680 -0.387019 2 2 2
1.100763 1.608828 0.239351 32 32 32
1.250969 1.828363 -0.272012 2 2 2
1.672065 2.443819 0.468991 52 52 52
1.140811 1.667361 -0.176752 3 3 3
1.686193 2.464468 0.580441 72 72 72
1.093976 1.598908 -0.101532 48 48 48
1.649518 2.410866 0.674403 60 60 60
1.033205 1.510088 -0.031938 47 47 47
1.568680 2.292715 0.744364 61 61 61
1.184691 1.731494 -0.562155 4 4 4
1.050143 1.534844 0.032461 47 47 47
1.197249 1.749848 -0.489493 3 3 3
1.062397 1.552754 0.098601 46 46 46
1.212818 1.772602 -0.417490 3 3 3
1.083433 1.583500 0.167862 45 45 45
1.375354 2.010159 -0.385767 1 1 1
1.090674 1.594083 0.237158 33 33 33
1.242001 1.815256 -0.270062 1 1 1
1.663141 2.430776 0.466488 51 51 51
1.146436 1.675583 -0.177623 1 1 1
1.681759 2.457987 0.578914 72 72 72
1.089465 1.592315 -0.101113 50 50 50
1.642916 2.401216 0.671704 59 59 59
1.024172 1.496886 -0.031659 46 46 46
1.570861 2.295904 0.745399 61 61 61
1.167512 1.682334 -0.548696 9 9 9
1.060299 1.527846 0.032461 49 49 49
1.183274 1.705046 -0.479146 7 7 7
1.068117 1.539111 0.098182 46 46 46
1.213354 1.748391 -0.413674 3 3 3
1.083688 1.561548 0.166293 39 39 39
1.097827 1.581922 0.236427 34 34 34
1.667964 2.403464 0.463359 51 51 51
1.700263 2.450005 0.579678 75 75 75
1.100001 1.585054 -0.101113 45 45 45
1.661027 2.393469 0.672604 60 60 60
1.027236 1.480203 -0.031449 51 51 51
1.588257 2.288609 0.746434 61 61 61
1.159802 1.671224 -0.545073 6 6 6
1.053459 1.517988 0.032252 49 49 49
1.171052 1.687436 -0.474197 1 1 1
1.069256 1.540752 0.098287 48 48 48
1.205519 1.737100 -0.411003 1 1 1
1.071193 1.543542 0.164376 42 42 42
1.102355 1.588445 0.237401 38 38 38
1.663459 2.396973 0.462107 54 54 54
1.691308 2.437102 0.576625 75 75 75
1.100001 1.585054 -0.101113 47 47 47
1.661027 2.393469 0.672604 58 58 58
1.022676 1.473632 -0.031310 52 52 52
1.583851 2.282261 0.744364 62 62 62
1.055079 1.497334 0.031973 49 49 49
1.073351 1.523265 0.097659 46 46 46
1.081063 1.534209 0.164201 41 41 41
1.109119 1.574026 0.236427 38 38 38
1.673741 2.375319 0.460230 51 51 51
1.123525 1.594470 -0.170651 1 1 1
1.695134 2.405679 0.572045 65 65 65
1.111315 1.577142 -0.101113 43 43 43
1.684847 2.391079 0.675303 66 66 66
1.033194 1.466276 -0.031310 50 50 50
1.597916 2.267710 0.743328 66 66 66
1.052776 1.494065 0.031903 47 47 47
1.066449 1.513469 0.097031 46 46 46
1.082210 1.535838 0.164376 42 42 42
1.098828 1.559421 0.234233 45 45 45
1.666915 2.365631 0.458353 54 54 54
1.683825 2.389630 0.568229 60 60 60
1.102112 1.564081 -0.100276 44 44 44
1.689337 2.397451 0.677103 68 68 68
1.033194 1.466276 -0.031310 47 47 47
1.602367 2.274027 0.745399 62 62 62
1.062921 1.486864 0.031903 47 47 47
1.069757 1.496426 0.096403 46 46 46
1.088005 1.521952 0.163678 44 44 44
1.108263 1.550291 0.233989 51 51 51
1.678383 2.347802 0.457102 52 52 52
1.115813 1.560852 -0.167862 1 1 1
1.697768 2.374919 0.567466 60 60 60
1.110410 1.553294 -0.100066 43 43 43
1.695417 2.371629 0.673054 67 67 67
1.038499 1.452702 -0.031170 43 43 43
1.617809 2.263068 0.745399 61 61 61
1.062921 1.486864 0.031903 47 47 47
1.068595 1.494801 0.096298 59 59 59
1.090322 1.525194 0.164027 53 53 53
1.109732 1.552345 -0.302231 1 1 1
1.110572 1.553521 0.234477 55 55 55
1.080557 1.511534 -0.228139 1 1 1
1.666895 2.331732 0.453973 54 54 54
1.099591 1.538161 -0.165422 1 1 1
1.695485 2.371725 0.566703 64 64 64
1.108087 1.550044 -0.099857 40 40 40
1.692017 2.366873 0.671704 73 73 73
1.031522 1.442942 -0.030961 40 40 40
1.620056 2.266211 0.746434 65 65 65
1.071184 1.475983 0.031833 62 62 62
1.075938 1.482534 -0.422908 1 1 1
1.080437 1.488733 0.096403 79 79 79
1.068961 1.472920 -0.353760 1 1 1
1.097697 1.512515 0.163504 54 54 54
1.079042 1.486811 -0.290968 1 1 1
1.116996 1.539108 0.233502 63 63 63
1.128656 1.555173 -0.235939 1 1 1
1.674256 2.306954 0.451470 52 52 52
1.703188 2.346820 0.563650 61 61 61
1.116804 1.538842 -0.099648 40 40 40
1.718067 2.367322 0.675303 93 93 93
1.045344 1.440378 -0.031065 28 28 28
1.633961 2.251433 0.745399 62 62 62
1.026899 1.414963 -0.468462 0 0 0
1.061788 1.463036 0.031554 78 78 78
1.055335 1.454145 -0.414810 1 1 1
1.075745 1.482267 0.095984 43 43 43
1.068961 1.472920 -0.353760 1 1 1
1.089506 1.501228 0.162284 37 37 37
1.110001 1.529468 0.232039 40 40 40
1.673095 2.305356 0.451157 57 57 57
1.696269 2.337287 0.561360 65 65 65
1.119150 1.542075 -0.099857 38 38 38
1.715778 2.364168 0.674403 84 84 84
1.052392 1.450089 -0.031275 26 26 26
1.636231 2.254560 0.746434 60 60 60
1.052292 1.429904 -0.475709 0 0 0
1.066727 1.449520 0.031414 46 46 46
1.090287 1.481535 0.096403 40 40 40
1.120695 1.522854 0.165422 38 38 38
1.122473 1.525270 0.232527 42 42 42
1.684836 2.289436 0.450218 53 53 53
1.704751 2.316498 0.559070 61 61 61
1.112779 1.512098 -0.098392 33 33 33
1.733730 2.355876 0.675303 75 75 75
1.064356 1.446298 -0.031345 26 26 26
1.651148 2.243659 0.746434 61 61 61
1.077394 1.464015 0.031728 39 39 39
1.102125 1.497621 0.097450 42 42 42
1.126599 1.530877 0.166293 42 42 42
1.127179 1.531666 0.233502 38 38 38
1.677811 2.279890 0.448341 50 50 50
1.697769 2.307011 0.556781 61 61 61
1.109228 1.507272 -0.098078 36 36 36
1.722179 2.340180 0.670804 73 73 73
1.066727 1.449520 -0.031414 28 28 28
1.655728 2.249882 0.748505 60 60 60
1.094767 1.466071 0.031938 45 45 45
1.117334 1.496291 0.097868 42 42 42
1.146796 1.535746 0.167688 42 42 42
1.148534 1.538074 0.235695 33 33 33
1.679503 2.249128 0.444587 51 51 51
1.709135 2.288810 0.555254 61 61 61
1.123309 1.504293 -0.098392 34 34 34
1.729147 2.315609 0.667205 73 73 73
1.067249 1.429219 -0.031135 28 28 28
1.669083 2.235173 0.747469 61 61 61
1.101946 1.475685 0.032147 43 43 43
1.122114 1.502692 0.098287 42 42 42
1.140835 1.527764 0.166816 40 40 40
1.155661 1.547618 0.237158 32 32 32
1.670048 2.236465 0.442084 51 51 51
1.706786 2.285664 0.554491 61 61 61
1.120919 1.501092 -0.098182 30 30 30
1.723317 2.307802 0.664955 61 61 61
1.067249 1.429219 -0.031135 36 36 36
1.666771 2.232077 0.746434 63 63 63
1.111014 1.466362 0.032112 41 41 41
1.134989 1.498006 0.098496 42 42 42
1.157489 1.527703 0.167688 42 42 42
