0.430181 -0.568182 -0.138527 100 100 100
0.667475 -0.881600 0.096743 24 24 24
0.456685 -0.603188 -0.119829 75 75 75
0.721348 -0.952756 0.146731 10 10 10
0.476904 -0.629895 -0.097008 90 90 90
0.777437 -1.026838 0.203991 27 27 27
0.496697 -0.656037 -0.071991 76 76 76
0.843770 -1.114451 0.271712 21 21 21
0.529257 -0.699042 -0.045951 100 100 100
0.886937 -1.171466 0.339226 1 1 1
0.546801 -0.722215 -0.015812 74 74 74
0.854762 -1.128969 0.379429 0 0 0
0.460615 -0.608380 -0.204467 100 100 100
0.580599 -0.766855 0.016789 23 23 23
0.423471 -0.559321 -0.161965 48 48 48
0.622088 -0.821653 0.054011 26 26 26
0.430181 -0.568182 -0.138527 100 100 100
0.674691 -0.891131 0.097789 28 28 28
0.454300 -0.600039 -0.119203 75 75 75
0.717753 -0.948008 0.145999 10 10 10
0.476904 -0.629895 -0.097008 82 82 82
0.777437 -1.026838 0.203991 28 28 28
0.501508 -0.662391 -0.072688 79 79 79
0.846140 -1.117581 0.272475 22 22 22
0.522023 -0.689488 -0.045323 100 100 100
0.893995 -1.180788 0.341926 1 1 1
0.554044 -0.731781 -0.016021 68 68 68
0.880417 -1.162854 0.390817 0 0 0
0.577488 -0.774196 0.016859 8 8 8
0.420623 -0.563899 -0.162415 34 34 34
0.607833 -0.814877 0.053278 30 30 30
0.430799 -0.577541 -0.140054 100 100 100
0.662340 -0.887951 0.096917 24 24 24
0.457081 -0.612775 -0.121080 73 73 73
0.705017 -0.945164 0.144781 9 9 9
0.465263 -0.623744 -0.095546 86 86 86
0.770069 -1.032375 0.203991 27 27 27
0.494373 -0.662769 -0.072339 75 75 75
0.831078 -1.114165 0.270186 22 22 22
0.517076 -0.693206 -0.045323 92 92 92
0.873871 -1.171534 0.337427 1 1 1
0.551184 -0.738932 -0.016091 57 57 57
0.872073 -1.169124 0.390817 0 0 0
0.410048 -0.549721 -0.183762 14 14 14
0.588249 -0.788622 0.017173 13 13 13
0.418293 -0.560774 -0.161515 39 39 39
0.606639 -0.813276 0.053173 26 26 26
0.428451 -0.574393 -0.139291 100 100 100
0.663532 -0.889548 0.097091 22 22 22
0.457081 -0.612775 -0.121080 82 82 82
0.708577 -0.949937 0.145512 6 6 6
0.465263 -0.623744 -0.095546 86 86 86
0.760620 -1.019707 0.201488 28 28 28
0.496755 -0.665963 -0.072688 73 73 73
0.833426 -1.117313 0.270949 20 20 20
0.515882 -0.691605 -0.045218 100 100 100
0.876201 -1.174658 0.338326 1 1 1
0.541619 -0.726109 -0.015812 64 64 64
0.837421 -1.122669 0.375288 0 0 0
0.391418 -0.532267 -0.177032 15 15 15
0.575759 -0.782942 0.016964 17 17 17
0.426011 -0.579308 -0.166014 60 60 60
0.598723 -0.814168 0.052964 15 15 15
0.422206 -0.574133 -0.138527 100 100 100
0.646838 -0.879598 0.095523 24 24 24
0.449388 -0.611097 -0.120142 70 70 70
0.695039 -0.945143 0.144050 4 4 4
0.465711 -0.633294 -0.096521 83 83 83
0.753662 -1.024861 0.201488 28 28 28
0.478046 -0.650068 -0.070596 82 82 82
0.825802 -1.122960 0.270949 20 20 20
0.515895 -0.701536 -0.045637 100 100 100
0.865877 -1.177455 0.337427 1 1 1
0.533110 -0.724946 -0.015707 58 58 58
0.878973 -1.195265 0.397546 1 1 1
0.392562 -0.533823 -0.177550 31 31 31
0.566282 -0.770054 0.016685 27 27 27
0.413312 -0.562039 -0.161065 84 84 84
0.599906 -0.815777 0.053069 15 15 15
0.422206 -0.574133 -0.138527 100 100 100
0.645658 -0.877993 0.095348 22 22 22
0.443537 -0.603140 -0.118577 76 76 76
0.689158 -0.937147 0.142831 6 6 6
0.465711 -0.633294 -0.096521 83 83 83
0.750151 -1.020087 0.200549 27 27 27
0.480407 -0.653278 -0.070945 81 81 81
0.816497 -1.110307 0.267896 22 22 22
0.512346 -0.696709 -0.045323 100 100 100
0.872804 -1.186875 0.340126 1 1 1
0.533110 -0.724946 -0.015707 63 63 63
0.977400 -1.329110 0.442063 5 5 5
0.400162 -0.552193 -0.182726 29 29 29
0.564412 -0.778846 0.016789 25 25 25
0.407091 -0.561755 -0.160165 100 100 100
0.594196 -0.819946 0.053069 11 11 11
0.420491 -0.580246 -0.139291 100 100 100
0.639512 -0.882479 0.095348 18 18 18
0.433520 -0.598224 -0.117013 73 73 73
0.676775 -0.933898 0.141612 5 5 5
0.456619 -0.630100 -0.095546 86 86 86
0.741852 -1.023700 0.200236 30 30 30
0.475835 -0.656616 -0.070945 81 81 81
0.806421 -1.112800 0.267133 20 20 20
0.501609 -0.692183 -0.044800 100 100 100
0.853061 -1.177160 0.335627 1 1 1
0.528036 -0.728650 -0.015707 58 58 58
0.993037 -1.370315 0.453451 9 9 9
0.406964 -0.561579 -0.185832 43 43 43
0.570279 -0.786942 0.016964 30 30 30
0.411665 -0.568066 -0.161965 100 100 100
0.582476 -0.803773 0.052022 16 16 16
0.420491 -0.580246 -0.139291 93 93 93
0.638343 -0.880865 0.095174 14 14 14
0.441634 -0.609421 -0.119203 75 75 75
0.672116 -0.927468 0.140637 4 4 4
0.451960 -0.623670 -0.094571 73 73 73
0.744170 -1.026899 0.200862 31 31 31
0.480511 -0.663069 -0.071642 78 78 78
0.802965 -1.108031 0.265988 11 11 11
0.501609 -0.692183 -0.044800 100 100 100
0.853061 -1.177160 0.335627 1 1 1
0.532730 -0.735127 -0.015847 55 55 55
0.991903 -1.368751 0.452933 9 9 9
0.402935 -0.564477 -0.185832 57 57 57
0.566957 -0.794258 0.017034 30 30 30
0.395135 -0.553550 -0.157016 97 97 97
0.568587 -0.796541 0.051289 18 18 18
0.404922 -0.567261 -0.135474 99 99 99
0.627393 -0.878924 0.094477 8 8 8
0.431523 -0.604527 -0.117639 73 73 73
0.674688 -0.945180 0.142587 4 4 4
0.446332 -0.625273 -0.094327 73 73 73
0.725326 -1.016120 0.197733 31 31 31
0.475754 -0.666490 -0.071642 78 78 78
0.766500 -1.073801 0.256447 2 2 2
0.503606 -0.705508 -0.045428 100 100 100
0.835558 -1.170545 0.332028 1 1 1
0.518162 -0.725900 -0.015568 61 61 61
0.976471 -1.367952 0.450345 9 9 9
0.390589 -0.547181 -0.180138 61 61 61
0.569281 -0.797513 0.017103 27 27 27
0.397400 -0.556723 -0.157916 60 60 60
0.569747 -0.798167 0.051394 13 13 13
0.407203 -0.570457 -0.136238 100 100 100
0.619291 -0.867573 0.093257 6 6 6
0.437262 -0.612566 -0.119203 65 65 65
0.664308 -0.930639 0.140393 4 4 4
0.447485 -0.626888 -0.094571 73 73 73
0.726474 -1.017727 0.198046 35 35 35
0.466494 -0.653517 -0.070248 84 84 84
0.727719 -1.019472 0.243472 2 2 2
0.501285 -0.702257 -0.045218 100 100 100
0.826501 -1.157856 0.328429 1 1 1
0.518162 -0.725900 -0.015568 61 61 61
0.966370 -1.353801 0.445686 8 8 8
0.377868 -0.537253 -0.175997 64 64 64
0.557947 -0.793290 0.016929 39 39 39
0.393503 -0.559483 -0.157916 54 54 54
0.576800 -0.820095 0.052545 11 11 11
0.409988 -0.582921 -0.138527 95 95 95
0.609780 -0.866986 0.092734 8 8 8
0.425020 -0.604293 -0.117013 73 73 73
0.670357 -0.953114 0.143075 6 6 6
0.445382 -0.633245 -0.095058 72 72 72
0.720488 -1.024390 0.198359 37 37 37
0.464212 -0.660017 -0.070596 82 82 82
0.714937 -1.016498 0.241564 3 3 3
0.497519 -0.707373 -0.045323 100 100 100
2.082989 -2.961596 0.835918 1 1 1
0.513081 -0.729499 -0.015568 61 61 61
0.951338 -1.352614 0.443098 4 4 4
0.380091 -0.540413 -0.177032 63 63 63
0.557947 -0.793290 0.016929 36 36 36
0.389019 -0.553108 -0.156116 60 60 60
0.577949 -0.821729 0.052650 11 11 11
0.407729 -0.579709 -0.137764 90 90 90
0.601757 -0.855578 0.091514 8 8 8
0.421610 -0.599446 -0.116074 64 64 64
0.649801 -0.923888 0.138687 8 8 8
0.440814 -0.626750 -0.094083 74 74 74
0.721624 -1.026006 0.198672 38 38 38
0.465359 -0.661647 -0.070770 82 82 82
0.701384 -0.997228 0.236985 3 3 3
0.486029 -0.691036 -0.044276 100 100 100
2.071779 -2.945656 0.831419 1 1 1
0.517683 -0.736042 -0.015707 58 58 58
0.939113 -1.335232 0.437404 3 3 3
0.382911 -0.552581 -0.180138 61 61 61
0.553534 -0.798809 0.016964 32 32 32
0.395138 -0.570226 -0.160165 78 78 78
0.566511 -0.817536 0.052127 8 8 8
0.395844 -0.571245 -0.135093 94 94 94
0.595769 -0.859758 0.091514 8 8 8
0.424166 -0.612117 -0.117952 61 61 61
0.645597 -0.931665 0.139175 10 10 10
0.429644 -0.620022 -0.092621 77 77 77
0.713319 -1.029395 0.198359 41 41 41
0.464132 -0.669793 -0.071293 79 79 79
0.698877 -1.008555 0.238511 4 4 4
0.477780 -0.689488 -0.043962 100 100 100
2.017866 -2.911996 0.817922 1 1 1
0.512532 -0.739638 -0.015707 58 58 58
0.914364 -1.319525 0.430157 1 1 1
0.371907 -0.536702 -0.174962 65 65 65
0.554673 -0.800453 0.016999 27 27 27
0.398467 -0.575031 -0.161515 100 100 100
0.572199 -0.825744 0.052650 11 11 11
0.394726 -0.569632 -0.134711 94 94 94
0.601443 -0.867947 0.092385 8 8 8
0.421916 -0.608869 -0.117326 63 63 63
0.653511 -0.943086 0.140881 13 13 13
0.429644 -0.620022 -0.092621 86 86 86
0.705443 -1.018030 0.196169 36 36 36
0.459593 -0.663242 -0.070596 82 82 82
0.708941 -1.023078 0.241946 6 6 6
0.483468 -0.697696 -0.044486 100 100 100
2.010096 -2.900783 0.814773 1 1 1
0.501142 -0.723202 -0.015358 66 66 66
0.852746 -1.230604 0.401170 0 0 0
0.360527 -0.528117 -0.171338 84 84 84
0.543434 -0.796048 0.016824 30 30 30
0.390048 -0.571361 -0.159715 100 100 100
0.566420 -0.829718 0.052650 15 15 15
0.391847 -0.573995 -0.135093 100 100 100
0.589752 -0.863897 0.091514 12 12 12
0.423223 -0.619957 -0.118890 71 71 71
0.649150 -0.950905 0.141368 12 12 12
0.428663 -0.627925 -0.093352 83 83 83
0.691636 -1.013141 0.194292 38 38 38
0.451582 -0.661498 -0.070073 84 84 84
0.701782 -1.028002 0.241946 27 27 27
0.477459 -0.699405 -0.044381 100 100 100
1.987598 -2.911527 0.813873 1 1 1
0.498336 -0.729986 -0.015428 64 64 64
0.780961 -1.143987 0.371147 0 0 0
0.360527 -0.528117 -0.171338 84 84 84
0.536670 -0.786139 0.016615 31 31 31
0.392246 -0.574580 -0.160615 100 100 100
0.572050 -0.837966 0.053173 18 18 18
0.401809 -0.588588 -0.138527 95 95 95
0.591999 -0.867188 0.091862 12 12 12
0.415427 -0.608537 -0.116700 64 64 64
0.641315 -0.939428 0.139662 17 17 17
0.430901 -0.631204 -0.093839 90 90 90
0.689409 -1.009878 0.193666 39 39 39
0.450458 -0.659853 -0.069899 85 85 85
0.477459 -0.699405 -0.044381 100 100 100
0.777899 -1.139503 0.318531 1 1 1
0.501718 -0.734940 -0.015533 56 56 56
0.754820 -1.105695 0.358723 0 0 0
0.360066 -0.535430 -0.172891 99 99 99
0.536748 -0.798163 0.016789 31 31 31
0.376263 -0.559516 -0.155666 91 91 91
0.561728 -0.835310 0.052755 26 26 26
0.388925 -0.578346 -0.135474 100 100 100
0.569253 -0.846500 0.089247 8 8 8
0.404555 -0.601587 -0.114823 66 66 66
0.633633 -0.942235 0.139419 11 11 11
0.426484 -0.634197 -0.093839 90 90 90
0.682342 -1.014666 0.193666 39 39 39
0.442505 -0.658021 -0.069376 79 79 79
0.682537 -1.014956 0.237748 90 90 90
0.466992 -0.694434 -0.043858 100 100 100
0.776450 -1.154609 0.321230 1 1 1
0.495459 -0.736766 -0.015498 52 52 52
0.365456 -0.543446 -0.175479 96 96 96
0.537864 -0.799822 0.016824 30 30 30
0.371913 -0.553048 -0.153867 91 91 91
0.557270 -0.828680 0.052336 31 31 31
0.393308 -0.584862 -0.137001 92 92 92
0.570365 -0.848153 0.089422 8 8 8
0.400145 -0.595030 -0.113571 67 67 67
0.629202 -0.935646 0.138444 9 9 9
0.416514 -0.619371 -0.091646 97 97 97
0.677932 -1.008109 0.192414 39 39 39
0.442505 -0.658021 -0.069376 79 79 79
0.678154 -1.008439 0.236222 61 61 61
0.470336 -0.699406 -0.044172 100 100 100
0.782975 -1.164311 0.323930 1 1 1
0.495459 -0.736766 -0.015498 47 47 47
0.361653 -0.545984 -0.175479 96 96 96
0.532267 -0.803558 0.016824 27 27 27
0.378804 -0.571877 -0.158366 100 100 100
0.547059 -0.825890 0.051917 37 37 37
0.381626 -0.576137 -0.134330 78 78 78
0.569931 -0.860419 0.090293 8 8 8
0.393800 -0.594516 -0.112946 63 63 63
0.624847 -0.943326 0.138931 16 16 16
0.415469 -0.627229 -0.092377 86 86 86
0.657788 -0.993055 0.188660 35 35 35
0.440101 -0.664417 -0.069725 85 85 85
0.657003 -0.991871 0.231261 63 63 63
0.462133 -0.697677 -0.043858 100 100 100
0.783436 -1.182746 0.327529 1 1 1
0.481470 -0.726870 -0.015218 57 57 57
0.352051 -0.531489 -0.170821 100 100 100
0.532267 -0.803558 0.016824 27 27 27
0.388490 -0.586499 -0.162415 100 100 100
0.551471 -0.832551 0.052336 34 34 34
0.383794 -0.579410 -0.135093 70 70 70
0.567731 -0.857097 0.089945 8 8 8
0.400345 -0.604397 -0.114823 60 60 60
0.624847 -0.943326 0.138931 20 20 20
0.417661 -0.630539 -0.092864 93 93 93
0.638152 -0.963412 0.183028 30 30 30
0.427999 -0.646145 -0.067807 93 93 93
0.655919 -0.990235 0.230879 59 59 59
0.465442 -0.702673 -0.044172 100 100 100
0.785589 -1.185995 0.328429 1 1 1
0.481470 -0.726870 -0.015218 51 51 51
0.347277 -0.532315 -0.170303 100 100 100
0.517903 -0.793856 0.016545 35 35 35
0.370544 -0.567979 -0.156566 87 87 87
0.546737 -0.838053 0.052441 33 33 33
0.381885 -0.585364 -0.135856 64 64 64
0.556290 -0.852696 0.089073 6 6 6
0.390719 -0.598905 -0.113259 69 69 69
0.616077 -0.944340 0.138444 24 24 24
0.414334 -0.635102 -0.093108 93 93 93
0.619538 -0.949645 0.179587 17 17 17
0.426743 -0.654123 -0.068330 83 83 83
0.639336 -0.979991 0.227444 24 24 24
0.459434 -0.704232 -0.044067 100 100 100
0.780484 -1.196347 0.329778 2 2 2
0.476383 -0.730213 -0.015218 51 51 51
0.704054 -1.079193 0.345265 0 0 0
0.349388 -0.535551 -0.171338 100 100 100
0.513532 -0.787156 0.016405 35 35 35
0.371608 -0.569611 -0.157016 100 100 100
0.547828 -0.839726 0.052545 33 33 33
0.382958 -0.587008 -0.136238 69 69 69
0.559556 -0.857703 0.089596 6 6 6
0.390719 -0.598905 -0.113259 69 69 69
0.609569 -0.934365 0.136981 22 22 22
0.416503 -0.638427 -0.093596 92 92 92
0.628173 -0.962880 0.182090 34 34 34
0.422389 -0.647449 -0.067633 94 94 94
0.623245 -0.955327 0.221720 16 16 16
0.447429 -0.685832 -0.042915 100 100 100
0.794326 -1.217565 0.335627 3 3 3
0.480754 -0.736912 -0.015358 49 49 49
0.676609 -1.037125 0.331806 0 0 0
0.348868 -0.542793 -0.172891 100 100 100
0.511406 -0.795680 0.016510 33 33 33
0.366669 -0.570488 -0.156566 100 100 100
0.537780 -0.836715 0.052127 36 36 36
0.380015 -0.591253 -0.136619 63 63 63
0.553705 -0.861491 0.089596 4 4 4
0.391974 -0.609859 -0.114823 66 66 66
0.605342 -0.941832 0.137469 19 19 19
0.402488 -0.626218 -0.091402 97 97 97
0.622672 -0.968795 0.182403 68 68 68
0.422281 -0.657013 -0.068330 83 83 83
0.616728 -0.959547 0.221720 16 16 16
0.438431 -0.682141 -0.042497 100 100 100
0.769162 -1.196714 0.328429 5 5 5
0.469240 -0.730075 -0.015149 58 58 58
0.659089 -1.025455 0.326630 0 0 0
0.348868 -0.542793 -0.172891 100 100 100
0.512487 -0.797362 0.016545 32 32 32
0.371937 -0.578685 -0.158815 100 100 100
0.532381 -0.828314 0.051603 39 39 39
0.369400 -0.574737 -0.132803 79 79 79
0.562323 -0.874900 0.090991 6 6 6
0.393042 -0.611521 -0.115136 66 66 66
0.603195 -0.938492 0.136981 12 12 12
0.399268 -0.621208 -0.090671 81 81 81
0.615196 -0.957163 0.180213 100 100 100
0.422281 -0.657013 -0.068330 83 83 83
0.618851 -0.962850 0.222483 12 12 12
0.443831 -0.690542 -0.043020 100 100 100
0.767055 -1.193435 0.327529 10 10 10
0.468158 -0.728392 -0.015114 60 60 60
0.669534 -1.041707 0.331806 0 0 0
0.340844 -0.538745 -0.170821 100 100 100
0.505699 -0.799319 0.016510 27 27 27
0.364661 -0.576391 -0.157466 100 100 100
0.529643 -0.837166 0.051917 33 33 33
0.368427 -0.582343 -0.133948 84 84 84
0.544330 -0.860380 0.089073 6 6 6
0.390768 -0.617657 -0.115762 64 64 64
0.599648 -0.947817 0.137712 10 10 10
0.391629 -0.619017 -0.089940 83 83 83
0.601994 -0.951525 0.178335 100 100 100
0.411177 -0.649916 -0.067284 80 80 80
0.605647 -0.957299 0.220194 11 11 11
0.438878 -0.693700 -0.043020 100 100 100
0.759537 -1.200541 0.327979 13 13 13
0.457588 -0.723274 -0.014939 62 62 62
0.651734 -1.030145 0.326630 1 1 1
0.340844 -0.538745 -0.170821 100 100 100
0.496077 -0.784110 0.016196 27 27 27
0.365703 -0.578038 -0.157916 91 91 91
0.527508 -0.833790 0.051708 35 35 35
0.367377 -0.580684 -0.133566 96 96 96
0.547526 -0.865432 0.089596 8 8 8
0.385487 -0.609310 -0.114197 67 67 67
0.597526 -0.944462 0.137225 4 4 4
0.394813 -0.624049 -0.090671 81 81 81
0.594601 -0.939840 0.176145 99 99 99
0.410112 -0.648232 -0.067110 72 72 72
0.608796 -0.962277 0.221338 10 10 10
0.435674 -0.688636 -0.042706 100 100 100
0.765788 -1.210422 0.330678 20 20 20
0.465072 -0.735103 -0.015184 64 64 64
0.656899 -1.038308 0.329218 1 1 1
0.339117 -0.544391 -0.171856 100 100 100
0.490591 -0.787555 0.016196 23 23 23
0.354446 -0.568999 -0.154766 100 100 100
0.523786 -0.840843 0.051917 33 33 33
0.365390 -0.586568 -0.134330 100 100 100
0.544631 -0.874306 0.090119 8 8 8
0.377046 -0.605279 -0.112946 69 69 69
0.566777 -0.909857 0.131619 7 7 7
0.388347 -0.623421 -0.090183 82 82 82
0.588025 -0.943968 0.176145 92 92 92
0.404523 -0.649388 -0.066936 81 81 81
0.597911 -0.959838 0.219812 10 10 10
0.428744 -0.688271 -0.042497 100 100 100
0.755259 -1.212430 0.329778 19 19 19
0.458872 -0.736635 -0.015149 70 70 70
0.685384 -1.100259 0.347335 1 1 1
0.343203 -0.550950 -0.173926 100 100 100
0.490591 -0.787555 0.016196 23 23 23
0.354446 -0.568999 -0.154766 91 91 91
0.515338 -0.827281 0.051080 39 39 39
0.368504 -0.591567 -0.135474 99 99 99
0.541471 -0.869233 0.089596 10 10 10
0.381224 -0.611986 -0.114197 67 67 67
0.561529 -0.901433 0.130400 8 8 8
0.384149 -0.616681 -0.089208 93 93 93
0.586981 -0.942291 0.175832 67 67 67
0.406630 -0.652770 -0.067284 72 72 72
0.608292 -0.976502 0.223628 10 10 10
0.422408 -0.678099 -0.041869 100 100 100
0.747016 -1.199198 0.326179 20 20 20
0.456757 -0.733240 -0.015079 72 72 72
0.786506 -1.262593 0.398581 5 5 5
0.337232 -0.550097 -0.172891 100 100 100
0.479717 -0.782521 0.016021 25 25 25
0.351384 -0.573182 -0.155216 94 94 94
0.509405 -0.830947 0.051080 34 34 34
0.358105 -0.584146 -0.133185 100 100 100
0.542526 -0.884976 0.090816 18 18 18
0.378900 -0.618067 -0.114823 66 66 66
0.548839 -0.895273 0.128938 7 7 7
0.383876 -0.626184 -0.090183 91 91 91
0.578158 -0.943099 0.175207 50 50 50
0.402990 -0.657362 -0.067459 70 70 70
0.606419 -0.989198 0.225536 9 9 9
0.420676 -0.686213 -0.042183 100 100 100
0.734341 -1.197867 0.324379 20 20 20
0.447318 -0.729671 -0.014939 75 75 75
0.810771 -1.322539 0.415663 10 10 10
0.332184 -0.541862 -0.170303 100 100 100
0.483898 -0.789340 0.016161 28 28 28
0.355458 -0.579827 -0.157016 91 91 91
0.512536 -0.836056 0.051394 32 32 32
0.358105 -0.584146 -0.133185 100 100 100
0.536278 -0.874784 0.089770 22 22 22
0.380965 -0.621435 -0.115449 66 66 66
0.552989 -0.902043 0.129913 6 6 6
0.385951 -0.629568 -0.090671 99 99 99
0.578158 -0.943099 0.175207 49 49 49
0.392577 -0.640376 -0.065715 68 68 68
0.642332 -1.047780 0.238893 11 11 11
0.422764 -0.689618 -0.042392 100 100 100
0.734341 -1.197867 0.324379 21 21 21
0.441047 -0.719442 -0.014730 79 79 79
0.800674 -1.306070 0.410487 10 10 10
0.328488 -0.544111 -0.170303 100 100 100
0.470246 -0.778920 0.015882 40 40 40
0.351503 -0.582233 -0.157016 91 91 91
0.505801 -0.837815 0.051289 32 32 32
0.356150 -0.589931 -0.133948 100 100 100
0.530311 -0.878414 0.089770 26 26 26
0.371622 -0.615558 -0.113884 67 67 67
0.547862 -0.907486 0.130156 6 6 6
0.386787 -0.640678 -0.091889 96 96 96
0.581935 -0.963923 0.178335 60 60 60
0.379971 -0.629388 -0.064321 72 72 72
0.648376 -1.073978 0.243854 13 13 13
0.418060 -0.692480 -0.042392 100 100 100
0.726171 -1.202837 0.324379 20 20 20
0.436140 -0.722427 -0.014730 79 79 79
0.797756 -1.321412 0.413593 8 8 8
0.329486 -0.545765 -0.170821 100 100 100
0.470246 -0.778920 0.015882 45 45 45
0.340424 -0.563882 -0.152067 76 76 76
0.508898 -0.842945 0.051603 30 30 30
0.356150 -0.589931 -0.133948 100 100 100
0.529282 -0.876708 0.089596 24 24 24
0.364475 -0.603720 -0.111694 70 70 70
0.544785 -0.902387 0.129425 8 8 8
0.385761 -0.638979 -0.091646 97 97 97
0.594186 -0.984217 0.182090 79 79 79
0.374822 -0.620860 -0.063449 74 74 74
0.653449 -1.082381 0.245762 21 21 21
0.408770 -0.677091 -0.041450 100 100 100
0.726171 -1.202837 0.324379 20 20 20
0.438207 -0.725851 -0.014800 78 78 78
0.754823 -1.250297 0.391334 3 3 3
0.324681 -0.546391 -0.170303 100 100 100
0.461732 -0.777027 0.015777 37 37 37
0.332497 -0.559544 -0.150267 54 54 54
0.493818 -0.831024 0.050661 35 35 35
0.352023 -0.592403 -0.133948 100 100 100
0.524166 -0.882095 0.089770 22 22 22
0.361260 -0.607948 -0.112007 70 70 70
0.539486 -0.907875 0.129669 9 9 9
0.378248 -0.636537 -0.090915 99 99 99
0.581246 -0.978152 0.180213 66 66 66
0.382692 -0.644015 -0.065541 94 94 94
0.648886 -1.091980 0.246907 24 24 24
0.407094 -0.685080 -0.041764 100 100 100
0.707801 -1.191125 0.319880 20 20 20
0.436194 -0.734050 -0.014904 76 76 76
0.741142 -1.247233 0.388746 1 1 1
0.327642 -0.551373 -0.171856 100 100 100
0.447430 -0.752960 0.015288 27 27 27
0.335484 -0.564570 -0.151617 50 50 50
0.489737 -0.824156 0.050243 38 38 38
0.346006 -0.582277 -0.131658 100 100 100
0.524166 -0.882095 0.089770 24 24 24
0.368324 -0.619836 -0.114197 67 67 67
0.544556 -0.916408 0.130888 8 8 8
0.376220 -0.633123 -0.090427 100 100 100
0.595373 -1.001926 0.184593 49 49 49
0.386763 -0.650866 -0.066238 83 83 83
0.646880 -1.088604 0.246144 24 24 24
0.407094 -0.685080 -0.041764 100 100 100
0.705810 -1.187774 0.318981 21 21 21
0.424957 -0.715140 -0.014520 85 85 85
0.727325 -1.223982 0.381499 0 0 0
0.315983 -0.540306 -0.167715 100 100 100
0.437115 -0.747434 0.015114 23 23 23
0.336453 -0.575309 -0.153867 52 52 52
0.490021 -0.837899 0.050871 35 35 35
0.341932 -0.584678 -0.131658 100 100 100
0.511960 -0.875413 0.088725 22 22 22
0.363988 -0.622392 -0.114197 67 67 67
0.541151 -0.925328 0.131619 14 14 14
0.376802 -0.644302 -0.091646 97 97 97
0.586370 -1.002648 0.183967 39 39 39
0.379193 -0.648391 -0.065715 93 93 93
0.641247 -1.096483 0.246907 24 24 24
0.407343 -0.696525 -0.042287 100 100 100
0.699468 -1.196037 0.319880 22 22 22
0.419954 -0.718089 -0.014520 85 85 85
0.699258 -1.195678 0.371147 0 0 0
0.317933 -0.543641 -0.168750 100 100 100
0.435096 -0.743982 0.015044 29 29 29
0.342356 -0.585402 -0.156566 50 50 50
0.489013 -0.836175 0.050766 41 41 41
0.341932 -0.584678 -0.131658 100 100 100
0.509949 -0.871974 0.088376 22 22 22
0.357007 -0.610456 -0.112007 70 70 70
0.544158 -0.930469 0.132350 17 17 17
0.378806 -0.647730 -0.092133 96 96 96
0.592353 -1.012879 0.185844 41 41 41
0.382210 -0.653550 -0.066238 100 100 100
0.631336 -1.079536 0.243091 25 25 25
0.408351 -0.698249 -0.042392 100 100 100
0.697500 -1.192673 0.318981 22 22 22
0.421973 -0.721541 -0.014590 84 84 84
0.695357 -1.189007 0.369076 0 0 0
0.317117 -0.550816 -0.170303 100 100 100
0.441995 -0.767722 0.015463 42 42 42
0.328640 -0.570830 -0.152067 65 65 65
0.484307 -0.841215 0.050871 40 40 40
0.343822 -0.597201 -0.133948 100 100 100
0.505990 -0.878878 0.088725 22 22 22
0.355801 -0.618007 -0.112946 63 63 63
0.526917 -0.915227 0.129669 20 20 20
0.375379 -0.652013 -0.092377 94 94 94
0.586431 -1.018599 0.186157 38 38 38
0.377753 -0.656137 -0.066238 92 92 92
0.620055 -1.077003 0.241564 24 24 24
0.387645 -0.673318 -0.040717 100 100 100
0.687421 -1.194015 0.318081 22 22 22
0.421043 -0.731329 -0.014730 79 79 79
0.691103 -1.200410 0.371147 0 0 0
0.318081 -0.552490 -0.170821 100 100 100
0.446984 -0.776387 0.015637 58 58 58
0.325723 -0.565764 -0.150717 43 43 43
0.469359 -0.815252 0.049300 43 43 43
0.347740 -0.604006 -0.135474 99 99 99
0.504002 -0.875425 0.088376 22 22 22
0.356786 -0.619719 -0.113259 51 51 51
0.526917 -0.915227 0.129669 19 19 19
0.368446 -0.639971 -0.090671 99 99 99
0.579531 -1.006616 0.183967 33 33 33
0.385705 -0.669950 -0.067633 86 86 86
0.622993 -1.082107 0.242709 10 10 10
0.386648 -0.671588 -0.040613 100 100 100
0.681588 -1.183882 0.315381 22 22 22
0.425033 -0.738261 -0.014869 76 76 76
0.702669 -1.220500 0.377358 0 0 0
0.316023 -0.558114 -0.171856 100 100 100
0.438461 -0.774346 0.015533 61 61 61
0.319746 -0.564689 -0.149817 39 39 39
0.450720 -0.795996 0.047940 29 29 29
0.331801 -0.585978 -0.130895 100 100 100
0.495761 -0.875541 0.088027 22 22 22
0.352343 -0.622257 -0.113259 51 51 51
0.524267 -0.925884 0.130644 19 19 19
0.364835 -0.644318 -0.090915 99 99 99
0.565500 -0.998705 0.181777 38 38 38
0.380901 -0.672693 -0.067633 86 86 86
0.614267 -1.084829 0.242327 11 11 11
0.380848 -0.672599 -0.040508 100 100 100
0.668297 -1.180250 0.313132 16 16 16
0.413828 -0.730843 -0.014660 81 81 81
0.674880 -1.191876 0.367005 0 0 0
0.309360 -0.546346 -0.168232 100 100 100
0.441416 -0.779566 0.015637 63 63 63
0.322626 -0.569776 -0.151167 36 36 36
0.439895 -0.776878 0.046788 33 33 33
0.333735 -0.589395 -0.131658 100 100 100
0.493797 -0.872074 0.087679 24 24 24
0.348449 -0.615381 -0.112007 52 52 52
0.525245 -0.927611 0.130888 16 16 16
0.363857 -0.642591 -0.090671 99 99 99
0.564527 -0.996986 0.181464 37 37 37
0.375011 -0.662291 -0.066587 90 90 90
0.617169 -1.089954 0.243472 10 10 10
0.386753 -0.683027 -0.041136 100 100 100
0.674059 -1.190425 0.315831 13 13 13
0.409887 -0.723883 -0.014520 85 85 85
0.349339 -0.616951 0.189973 7 7 7
0.302718 -0.543430 -0.166679 100 100 100
0.433044 -0.777388 0.015533 61 61 61
0.319589 -0.573717 -0.151617 32 32 32
0.414049 -0.743289 0.044590 30 30 30
0.329613 -0.591711 -0.131658 100 100 100
0.481880 -0.865056 0.086633 27 27 27
0.347990 -0.624701 -0.113259 46 46 46
0.513926 -0.922585 0.129669 19 19 19
0.365158 -0.655521 -0.092133 96 96 96
0.556592 -0.999177 0.181151 35 35 35
0.370378 -0.664892 -0.066587 90 90 90
0.606678 -1.089091 0.242327 13 13 13
0.378087 -0.678731 -0.040717 100 100 100
0.667628 -1.198507 0.316731 21 21 21
0.400931 -0.719739 -0.014381 66 66 66
0.367586 -0.659879 0.202396 5 5 5
0.306478 -0.550181 -0.168750 100 100 100
0.432071 -0.775641 0.015498 56 56 56
0.318641 -0.572014 -0.151167 47 47 47
0.442236 -0.793889 0.047626 38 38 38
0.339167 -0.608862 -0.135474 94 94 94
0.474123 -0.851132 0.085238 28 28 28
0.343183 -0.616073 -0.111694 52 52 52
0.508130 -0.912179 0.128207 20 20 20
0.362260 -0.650318 -0.091402 97 97 97
0.554669 -0.995725 0.180525 30 30 30
0.374257 -0.671855 -0.067284 88 88 88
0.598080 -1.073655 0.238893 21 21 21
0.378087 -0.678731 -0.040717 100 100 100
0.660990 -1.186590 0.313582 20 20 20
0.388280 -0.697029 -0.013927 65 65 65
0.354424 -0.636252 0.195150 6 6 6
0.304389 -0.555748 -0.169785 100 100 100
0.427470 -0.780467 0.015533 61 61 61
0.307986 -0.562316 -0.148018 41 41 41
0.427909 -0.781267 0.046684 75 75 75
0.326313 -0.595776 -0.132040 98 98 98
0.460364 -0.840523 0.083844 21 21 21
0.338766 -0.618513 -0.111694 52 52 52
0.497775 -0.908828 0.127232 24 24 24
0.350922 -0.640706 -0.089696 100 100 100
0.367525 -0.671021 -0.066936 89 89 89
0.591325 -1.079629 0.239274 27 27 27
0.374180 -0.683171 -0.040822 100 100 100
0.644993 -1.177616 0.309983 12 12 12
0.383282 -0.699789 -0.013927 65 65 65
0.353574 -0.645549 0.197220 12 12 12
0.306245 -0.559137 -0.170821 100 100 100
0.436116 -0.796251 0.015847 58 58 58
0.314539 -0.574280 -0.151167 50 50 50
0.436544 -0.797033 0.047626 68 68 68
0.319711 -0.583723 -0.129368 100 100 100
0.407723 -0.744414 0.074257 30 30 30
0.338766 -0.618513 -0.111694 52 52 52
0.480610 -0.877489 0.122844 6 6 6
0.349015 -0.637224 -0.089208 100 100 100
0.542785 -0.991006 0.178961 11 11 11
0.367525 -0.671021 -0.066936 89 89 89
0.592268 -1.081351 0.239656 20 20 20
0.378977 -0.691930 -0.041345 100 100 100
0.638440 -1.165652 0.306833 12 12 12
0.377518 -0.689266 -0.013718 86 86 86
0.351718 -0.642160 0.196185 13 13 13
0.294184 -0.545903 -0.166162 100 100 100
0.429737 -0.797441 0.015812 50 50 50
0.313397 -0.581554 -0.152517 56 56 56
0.438688 -0.814052 0.048463 61 61 61
0.313868 -0.582429 -0.128605 100 100 100
0.399811 -0.741910 0.073734 31 31 31
0.337360 -0.626021 -0.112633 46 46 46
0.473685 -0.878993 0.122601 4 4 4
0.350319 -0.650070 -0.090671 99 99 99
0.537901 -0.998156 0.179587 23 23 23
0.364840 -0.677015 -0.067284 88 88 88
0.564404 -1.047335 0.231261 5 5 5
0.379944 -0.705043 -0.041973 100 100 100
0.629567 -1.168255 0.306383 10 10 10
0.383253 -0.711184 -0.014102 86 86 86
0.351005 -0.651342 0.198255 12 12 12
0.296934 -0.551005 -0.167715 100 100 100
0.420250 -0.779837 0.015463 57 57 57
0.311548 -0.578123 -0.151617 50 50 50
0.442478 -0.821084 0.048882 59 59 59
0.318525 -0.591070 -0.130513 81 81 81
0.411154 -0.762957 0.075825 41 41 41
0.331737 -0.615587 -0.110756 48 48 48
0.458617 -0.851033 0.118701 15 15 15
0.351261 -0.651818 -0.090915 99 99 99
0.525719 -0.975550 0.175519 12 12 12
0.360114 -0.668245 -0.066413 99 99 99
0.371612 -0.689582 0.152266 5 5 5
0.381839 -0.708559 -0.042183 100 100 100
0.632340 -1.173401 0.307733 11 11 11
0.387996 -0.719985 -0.014276 82 82 82
0.342757 -0.636036 0.193597 19 19 19
0.292175 -0.551357 -0.167197 100 100 100
0.411051 -0.775685 0.015323 49 49 49
0.302029 -0.569953 -0.148918 47 47 47
0.441411 -0.832977 0.049405 55 55 55
0.315310 -0.595014 -0.130895 93 93 93
0.417945 -0.788695 0.078092 41 41 41
0.329281 -0.621379 -0.111381 47 47 47
0.398754 -0.752480 0.104564 11 11 11
0.346702 -0.654254 -0.090915 99 99 99
0.533694 -1.007123 0.180525 20 20 20
0.356373 -0.672503 -0.066587 90 90 90
0.354839 -0.669608 0.147305 5 5 5
0.369401 -0.697089 -0.041345 100 100 100
0.619570 -1.169178 0.305484 10 10 10
0.387642 -0.731511 -0.014451 87 87 87
0.350972 -0.662312 0.200844 66 66 66
0.293080 -0.553064 -0.167715 100 100 100
0.402624 -0.759782 0.015009 60 60 60
0.300204 -0.566509 -0.148018 48 48 48
0.434865 -0.820624 0.048672 60 60 60
0.318068 -0.600219 -0.132040 79 79 79
0.428207 -0.808060 0.080009 41 41 41
0.330206 -0.623125 -0.111694 41 41 41
0.358786 -0.677056 0.094083 33 33 33
0.339266 -0.640222 -0.088965 100 100 100
0.532769 -1.005378 0.180213 24 24 24
0.358239 -0.676024 -0.066936 89 89 89
0.366789 -0.692160 0.152266 10 10 10
0.369401 -0.697089 -0.041345 100 100 100
0.606796 -1.145071 0.299185 3 3 3
0.388579 -0.733278 -0.014485 85 85 85
0.341926 -0.645242 0.195667 45 45 45
0.290997 -0.558523 -0.168750 100 100 100
0.396386 -0.760801 0.014974 42 42 42
0.296242 -0.568591 -0.148018 52 52 52
0.431894 -0.828954 0.048986 58 58 58
0.308427 -0.591978 -0.129750 82 82 82
0.415191 -0.796894 0.078614 33 33 33
0.324022 -0.621911 -0.111068 41 41 41
0.350381 -0.672503 0.093108 33 33 33
0.330202 -0.633772 -0.087746 100 100 100
0.515698 -0.989802 0.176771 23 23 23
0.349828 -0.671441 -0.066238 92 92 92
0.358319 -0.687739 0.150739 5 5 5
0.366371 -0.703194 -0.041555 100 100 100
0.483532 -0.928065 0.241597 2 2 2
0.379754 -0.728879 -0.014346 81 81 81
0.334735 -0.642473 0.194114 19 19 19
0.286534 -0.549957 -0.166162 100 100 100
0.404701 -0.776762 0.015288 55 55 55
0.303445 -0.582417 -0.151617 72 72 72
0.420820 -0.807698 0.047730 60 60 60
0.310241 -0.595460 -0.130513 81 81 81
0.416111 -0.798661 0.078789 50 50 50
0.338626 -0.649941 -0.116074 37 37 37
0.360471 -0.691868 0.095789 31 31 31
0.337540 -0.647856 -0.089696 100 100 100
0.507483 -0.974035 0.173955 11 11 11
0.347987 -0.667907 -0.065890 93 93 93
0.361041 -0.692962 0.151884 10 10 10
0.368217 -0.706736 -0.041764 100 100 100
0.462822 -0.888315 0.231250 2 2 2
0.382526 -0.734200 -0.014451 87 87 87
0.333843 -0.640760 0.193597 26 26 26
0.282687 -0.551944 -0.166162 100 100 100
0.389241 -0.759990 0.014904 73 73 73
0.297595 -0.581052 -0.150717 58 58 58
0.402424 -0.785729 0.046265 69 69 69
0.306077 -0.597611 -0.130513 81 81 81
0.432323 -0.844107 0.082972 46 46 46
0.312469 -0.610092 -0.108566 31 31 31
0.396353 -0.773875 0.106758 20 20 20
0.333914 -0.651964 -0.089940 100 100 100
0.339682 -0.663227 -0.065192 94 94 94
0.346350 -0.676245 0.147686 5 5 5
0.364185 -0.711067 -0.041869 100 100 100
0.363333 -0.709404 0.184010 15 15 15
0.379214 -0.740412 -0.014520 85 85 85
0.328481 -0.641356 0.193079 40 40 40
0.281807 -0.550225 -0.165644 100 100 100
0.388330 -0.758210 0.014869 75 75 75
0.290489 -0.567176 -0.147118 67 67 67
0.395140 -0.771508 0.045428 65 65 65
0.307866 -0.601106 -0.131277 62 62 62
0.439589 -0.858293 0.084367 39 39 39
0.313369 -0.611851 -0.108878 18 18 18
0.437074 -0.853383 0.117726 24 24 24
0.333914 -0.651964 -0.089940 92 92 92
0.343085 -0.669871 0.119203 27 27 27
0.341499 -0.666773 -0.065541 94 94 94
0.343665 -0.671002 0.146541 11 11 11
0.358722 -0.700401 -0.041241 100 100 100
0.382876 -0.747562 0.193908 12 12 12
0.378303 -0.738632 -0.014485 78 78 78
0.328481 -0.641356 0.193079 67 67 67
0.280662 -0.557306 -0.167197 100 100 100
0.387657 -0.769766 0.015044 88 88 88
0.289251 -0.574362 -0.148468 71 71 71
0.379100 -0.752774 0.044172 62 62 62
0.298469 -0.592667 -0.128987 39 39 39
0.437321 -0.868384 0.085064 39 39 39
0.302978 -0.601619 -0.106688 12 12 12
0.454470 -0.902435 0.124063 20 20 20
0.324111 -0.643584 -0.088477 96 96 96
0.322525 -0.640434 0.113571 20 20 20
0.340537 -0.676200 -0.066238 92 92 92
0.346154 -0.687354 0.149594 26 26 26
0.355743 -0.706394 -0.041450 100 100 100
0.346224 -0.687494 0.177711 11 11 11
0.376864 -0.748334 -0.014625 82 82 82
0.330190 -0.655654 0.196702 29 29 29
0.285006 -0.565933 -0.169785 100 100 100
0.390355 -0.775124 0.015149 63 63 63
0.293633 -0.583064 -0.150717 79 79 79
0.384490 -0.763477 0.044800 69 69 69
0.291405 -0.578640 -0.125934 13 13 13
0.426568 -0.847030 0.082972 38 38 38
0.294093 -0.583977 -0.103560 6 6 6
0.462506 -0.918392 0.126257 19 19 19
0.321433 -0.638265 -0.087746 97 97 97
0.312751 -0.621027 0.110130 22 22 22
0.336952 -0.669082 -0.065541 94 94 94
0.352335 -0.699628 0.152266 30 30 30
0.353048 -0.701043 -0.041136 100 100 100
0.336583 -0.668348 0.172762 19 19 19
0.371467 -0.737618 -0.014416 79 79 79
0.332797 -0.660831 0.198255 100 100 100
0.273240 -0.552374 -0.165127 100 100 100
0.386572 -0.781482 0.015218 61 61 61
0.291182 -0.588644 -0.151617 97 97 97
0.379902 -0.767999 0.044904 78 78 78
0.288127 -0.582470 -0.126316 6 6 6
0.399294 -0.807200 0.078789 56 56 56
0.298665 -0.603772 -0.106688 6 6 6
0.456802 -0.923457 0.126500 16 16 16
0.318617 -0.644107 -0.088233 96 96 96
0.310927 -0.628560 0.111068 32 32 32
0.331273 -0.669691 -0.065367 100 100 100
0.342097 -0.691573 0.149976 47 47 47
0.351565 -0.710712 -0.041555 100 100 100
0.335248 -0.677726 0.174562 25 25 25
0.361746 -0.731295 -0.014241 68 68 68
0.319494 -0.645879 0.193079 100 100 100
0.271527 -0.548911 -0.164091 100 100 100
0.381252 -0.770728 0.015009 66 66 66
0.291182 -0.588644 -0.151617 100 100 100
0.386101 -0.780530 0.045637 73 73 73
0.289868 -0.585989 -0.127079 6 6 6
0.411661 -0.832202 0.081229 49 49 49
0.288155 -0.582525 -0.102934 6 6 6
0.455042 -0.919899 0.126013 9 9 9
0.316857 -0.640548 -0.087746 97 97 97
0.334575 -0.676366 0.119516 36 36 36
0.329506 -0.666119 -0.065018 100 100 100
0.335133 -0.677495 0.146923 33 33 33
0.353336 -0.714292 -0.041764 100 100 100
0.335248 -0.677726 0.174562 12 12 12
0.364406 -0.736672 -0.014346 66 66 66
0.321207 -0.649342 0.194114 100 100 100
0.270319 -0.555958 -0.165644 100 100 100
0.377746 -0.776902 0.015079 64 64 64
0.280351 -0.576592 -0.148018 100 100 100
0.375539 -0.772363 0.045009 38 38 38
0.286732 -0.589714 -0.127460 6 6 6
0.412957 -0.849320 0.082624 36 36 36
0.285911 -0.588026 -0.103560 13 13 13
0.355023 -0.730168 0.099689 13 13 13
0.313358 -0.644476 -0.087990 97 97 97
0.318734 -0.655533 0.115449 39 39 39
0.325835 -0.670138 -0.065192 94 94 94
0.327080 -0.672698 0.145396 16 16 16
0.344972 -0.709496 -0.041345 100 100 100
0.337444 -0.694013 0.178161 11 11 11
0.355886 -0.731942 -0.014206 61 61 61
0.321004 -0.660201 0.196702 89 89 89
0.270319 -0.555958 -0.165644 100 100 100
0.382993 -0.787692 0.015288 55 55 55
0.279499 -0.574839 -0.147568 100 100 100
0.360692 -0.741828 0.043229 44 44 44
0.284156 -0.584417 -0.126316 6 6 6
0.385949 -0.793773 0.077220 37 37 37
0.291957 -0.600462 -0.105750 19 19 19
0.315094 -0.648046 0.088477 57 57 57
0.313358 -0.644476 -0.087990 100 100 100
0.294548 -0.605791 0.106688 23 23 23
0.329320 -0.677305 -0.065890 93 93 93
0.315920 -0.649745 0.140435 12 12 12
0.338859 -0.696923 -0.040613 100 100 100
0.407319 -0.837723 0.215053 4 4 4
0.357635 -0.735539 -0.014276 60 60 60
0.321004 -0.660201 0.196702 70 70 70
0.270495 -0.566595 -0.168232 100 100 100
0.377346 -0.790413 0.015288 60 60 60
0.276218 -0.578583 -0.148018 100 100 100
0.346770 -0.726366 0.042183 35 35 35
0.273200 -0.572262 -0.123263 7 7 7
0.345924 -0.724595 0.070248 63 63 63
0.277440 -0.581144 -0.101995 20 20 20
0.299330 -0.626996 0.085309 28 28 28
0.310448 -0.650284 -0.088477 96 96 96
0.279993 -0.586492 0.102934 25 25 25
0.325324 -0.681443 -0.066064 100 100 100
0.296037 -0.620098 0.133566 6 6 6
0.338165 -0.708342 -0.041136 100 100 100
0.527249 -1.104408 0.282539 3 3 3
0.349778 -0.732666 -0.014171 69 69 69
0.315439 -0.660737 0.196185 97 97 97
0.263004 -0.550905 -0.163574 100 100 100
0.379931 -0.795826 0.015393 59 59 59
0.278737 -0.583859 -0.149368 100 100 100
0.345049 -0.722761 0.041973 36 36 36
0.286733 -0.600609 -0.129368 6 6 6
0.328757 -0.688635 0.066761 95 95 95
0.281696 -0.590057 -0.103560 27 27 27
0.312159 -0.653867 0.088965 25 25 25
0.309593 -0.648493 -0.088233 100 100 100
0.279142 -0.584709 0.102621 25 25 25
0.317598 -0.665261 -0.064495 97 97 97
0.268125 -0.561632 0.120973 8 8 8
0.338165 -0.708342 -0.041136 100 100 100
0.502062 -1.051650 0.269041 1 1 1
0.353224 -0.739884 -0.014311 75 75 75
0.307948 -0.645047 0.191526 55 55 55
0.260889 -0.556180 -0.164609 100 100 100
0.366013 -0.780290 0.015044 52 52 52
0.271446 -0.578686 -0.147568 100 100 100
0.342666 -0.730518 0.042287 59 59 59
0.275969 -0.588328 -0.126316 6 6 6
0.324908 -0.692660 0.066936 42 42 42
0.272639 -0.581230 -0.101682 27 27 27
0.358282 -0.763809 0.103589 60 60 60
0.308544 -0.657774 -0.089208 100 100 100
0.289417 -0.616998 0.107940 23 23 23
0.316447 -0.674622 -0.065192 94 94 94
0.245954 -0.524341 0.112577 8 8 8
0.334184 -0.712435 -0.041241 100 100 100
0.397238 -0.846857 0.215953 2 2 2
0.347330 -0.740461 -0.014276 82 82 82
0.306832 -0.654124 0.193597 72 72 72
0.261710 -0.557929 -0.165127 100 100 100
0.355822 -0.758565 0.014625 39 39 39
0.272273 -0.580450 -0.148018 100 100 100
0.343514 -0.732326 0.042392 35 35 35
0.272634 -0.581218 -0.124789 6 6 6
0.357907 -0.763009 0.073734 62 62 62
0.270962 -0.577653 -0.101057 28 28 28
0.417293 -0.889612 0.120651 18 18 18
0.307701 -0.655977 -0.088965 100 100 100
0.299484 -0.638459 0.111694 21 21 21
0.318139 -0.678230 -0.065541 94 94 94
0.245954 -0.524341 0.112577 8 8 8
0.329943 -0.703394 -0.040717 100 100 100
0.397238 -0.846857 0.215953 2 2 2
0.346481 -0.738650 -0.014241 68 68 68
0.311754 -0.664618 0.196702 76 76 76
0.261750 -0.568562 -0.167715 100 100 100
0.331151 -0.719313 0.013822 81 81 81
0.267298 -0.580613 -0.147568 100 100 100
0.342441 -0.743836 0.042915 34 34 34
0.258616 -0.561754 -0.120210 7 7 7
0.384932 -0.836133 0.080532 53 53 53
0.271777 -0.590344 -0.102934 27 27 27
0.413407 -0.897985 0.121382 12 12 12
0.296358 -0.643736 -0.087015 98 98 98
0.296560 -0.644174 0.112320 21 21 21
0.313278 -0.680489 -0.065541 94 94 94
0.295561 -0.642005 0.137382 6 6 6
0.324066 -0.703923 -0.040613 100 100 100
0.309674 -0.672662 0.170963 6 6 6
0.336169 -0.730212 -0.014032 56 56 56
0.308606 -0.670342 0.197738 81 81 81
0.260134 -0.565052 -0.166679 100 100 100
0.337841 -0.733845 0.014102 53 53 53
0.268928 -0.584153 -0.148468 100 100 100
0.353299 -0.767421 0.044276 51 51 51
0.270110 -0.586721 -0.125552 6 6 6
0.402429 -0.874139 0.084192 40 40 40
0.274256 -0.595727 -0.103872 27 27 27
0.415897 -0.903395 0.122113 18 18 18
0.296358 -0.643736 -0.087015 98 98 98
0.275082 -0.597521 0.104185 24 24 24
0.313278 -0.680489 -0.065541 94 94 94
0.288993 -0.627738 0.134330 6 6 6
0.325737 -0.707552 -0.040822 100 100 100
0.228181 -0.495645 0.125973 11 11 11
0.326134 -0.708415 -0.013613 87 87 87
0.304567 -0.661568 0.195150 39 39 39
0.249915 -0.552728 -0.162538 100 100 100
0.342725 -0.757993 0.014520 55 55 55
0.264142 -0.584195 -0.148018 100 100 100
0.357119 -0.789827 0.045428 65 65 65
0.266110 -0.588546 -0.125552 6 6 6
0.398111 -0.880489 0.084541 37 37 37
0.272636 -0.602980 -0.104811 26 26 26
0.414645 -0.917057 0.123576 14 14 14
0.294423 -0.651165 -0.087746 100 100 100
0.262056 -0.579580 0.100744 51 51 51
0.306176 -0.677159 -0.065018 87 87 87
0.241036 -0.533090 0.113722 8 8 8
0.320090 -0.707932 -0.040717 100 100 100
0.298666 -0.660548 0.167364 7 7 7
0.321304 -0.710618 -0.013613 61 61 61
0.311199 -0.688269 0.202396 35 35 35
0.251506 -0.556248 -0.163574 100 100 100
0.348492 -0.770747 0.014765 63 63 63
0.264142 -0.584195 -0.148018 100 100 100
0.368638 -0.815305 0.046893 32 32 32
0.264492 -0.584968 -0.124789 6 6 6
0.397290 -0.878673 0.084367 39 39 39
0.269381 -0.595780 -0.103560 27 27 27
0.415463 -0.918866 0.123819 10 10 10
0.294423 -0.651165 -0.087746 100 100 100
0.262870 -0.581380 0.101057 25 25 25
0.298788 -0.660820 -0.063449 74 74 74
0.257212 -0.568868 0.121355 8 8 8
0.317622 -0.702473 -0.040403 100 100 100
0.362092 -0.800826 0.202906 3 3 3
0.329543 -0.728839 -0.013962 81 81 81
0.311199 -0.688269 0.202396 41 41 41
0.249086 -0.561566 -0.164609 100 100 100
0.350265 -0.789673 0.015079 64 64 64
0.252844 -0.570038 -0.143969 100 100 100
0.366844 -0.827051 0.047416 23 23 23
0.255523 -0.576078 -0.122499 7 7 7
0.384530 -0.866924 0.082972 38 38 38
0.266712 -0.601304 -0.104185 26 26 26
0.407268 -0.918186 0.123332 9 9 9
0.292975 -0.660514 -0.088721 100 100 100
0.250693 -0.565189 0.097928 13 13 13
0.295668 -0.666584 -0.063798 73 73 73
0.274628 -0.619149 0.131658 7 7 7
0.307728 -0.693773 -0.039775 100 100 100
0.273388 -0.616353 0.155666 8 8 8
0.331616 -0.747630 -0.014276 97 97 97
0.309400 -0.697542 0.204467 28 28 28
0.249086 -0.561566 -0.164609 100 100 100
0.355940 -0.802469 0.015323 66 66 66
0.256005 -0.577163 -0.145768 100 100 100
0.359556 -0.810619 0.046474 25 25 25
0.255523 -0.576078 -0.122499 7 7 7
0.387761 -0.874209 0.083670 28 28 28
0.262708 -0.592275 -0.102621 27 27 27
0.405658 -0.914557 0.122844 7 7 7
0.286536 -0.645997 -0.086771 100 100 100
0.249893 -0.563384 0.097615 27 27 27
0.300515 -0.677512 -0.064844 70 70 70
0.302489 -0.681961 0.145015 5 5 5
0.307728 -0.693773 -0.039775 11 11 11
0.229140 -0.516597 0.130472 10 10 10
0.330806 -0.745802 -0.014241 99 99 99
0.313316 -0.706372 0.207055 11 11 11
0.249014 -0.572148 -0.167197 100 100 100
0.345541 -0.793932 0.015114 58 58 58
0.253524 -0.582510 -0.146668 90 90 90
0.349903 -0.803953 0.045951 26 26 26
0.245227 -0.563447 -0.119446 7 7 7
0.383239 -0.880548 0.084018 13 13 13
0.262508 -0.603151 -0.104185 26 26 26
0.400056 -0.919187 0.123088 4 4 4
0.278851 -0.640701 -0.085796 100 100 100
0.236494 -0.543379 0.093861 14 14 14
0.293392 -0.674113 -0.064321 81 81 81
0.271082 -0.622851 0.132040 7 7 7
0.307659 -0.706893 -0.040403 16 16 16
0.219306 -0.503889 0.126872 11 11 11
0.323197 -0.742593 -0.014136 100 100 100
0.318399 -0.731570 0.213785 4 4 4
0.244389 -0.561520 -0.164091 100 100 100
0.353521 -0.812268 0.015463 73 73 73
0.257413 -0.591444 -0.148918 97 97 97
0.353091 -0.811278 0.046370 25 25 25
0.254629 -0.585048 -0.124026 6 6 6
0.374493 -0.860453 0.082101 17 17 17
0.261720 -0.601340 -0.103872 27 27 27
0.396095 -0.910086 0.121869 2 2 2
0.283604 -0.651622 -0.087258 100 100 100
0.219151 -0.503531 0.086978 15 15 15
0.291802 -0.670459 -0.063972 91 91 91
0.231908 -0.532844 0.112959 8 8 8
0.309253 -0.710555 -0.040613 18 18 18
0.225528 -0.518184 0.130472 10 10 10
0.320005 -0.735259 -0.013997 100 100 100
0.319941 -0.735112 0.214820 4 4 4
0.237428 -0.556105 -0.162021 100 100 100
0.340775 -0.798165 0.015149 92 92 92
0.253277 -0.593227 -0.148918 79 79 79
0.345850 -0.810050 0.046160 26 26 26
0.239746 -0.561534 -0.118683 7 7 7
0.371606 -0.870376 0.082798 15 15 15
0.256739 -0.601335 -0.103560 40 40 40
0.387393 -0.907352 0.121138 1 1 1
0.284504 -0.666365 -0.088965 95 95 95
0.231143 -0.541384 0.093235 14 14 14
0.284767 -0.666983 -0.063449 100 100 100
0.234350 -0.548895 0.116012 17 17 17
0.305069 -0.714534 -0.040717 12 12 12
0.221905 -0.519746 0.130472 10 10 10
0.315649 -0.739314 -0.014032 96 96 96
0.301147 -0.705348 0.205502 5 5 5
0.238946 -0.559659 -0.163056 100 100 100
0.339205 -0.794486 0.015079 94 94 94
0.247156 -0.578889 -0.145318 69 69 69
0.351340 -0.822908 0.046893 24 24 24
0.250539 -0.586812 -0.124026 6 6 6
0.380211 -0.890532 0.084715 15 15 15
0.248983 -0.583168 -0.100431 35 35 35
0.364789 -0.854408 0.114070 2 2 2
0.279048 -0.653586 -0.087258 100 100 100
0.367657 -0.861127 0.148300 12 12 12
0.287897 -0.674312 -0.064147 99 99 99
0.232037 -0.543478 0.114867 25 25 25
0.303501 -0.710860 -0.040508 100 100 100
0.220374 -0.516161 0.129572 10 10 10
0.317219 -0.742992 -0.014102 94 94 94
0.320870 -0.751542 0.218961 4 4 4
0.235229 -0.561231 -0.163056 100 100 100
0.330836 -0.789342 0.014939 61 61 61
0.243311 -0.580515 -0.145318 50 50 50
0.342014 -0.816010 0.046370 25 25 25
0.228428 -0.545005 -0.114867 7 7 7
0.375067 -0.894871 0.084890 18 18 18
0.250455 -0.597559 -0.102621 27 27 27
0.352975 -0.842162 0.112120 2 2 2
0.272405 -0.649930 -0.086527 100 100 100
0.286499 -0.683557 -0.064844 96 96 96
0.220839 -0.526898 0.111051 9 9 9
0.297236 -0.709173 -0.040299 100 100 100
0.215440 -0.514017 0.128672 10 10 10
0.313831 -0.748768 -0.014171 93 93 93
0.317372 -0.757216 0.219996 4 4 4
0.238216 -0.568358 -0.165127 100 100 100
0.334701 -0.798563 0.015114 64 64 64
0.244065 -0.582313 -0.145768 52 52 52
0.341242 -0.814168 0.046265 25 25 25
0.231463 -0.552248 -0.116393 7 7 7
0.375067 -0.894871 0.084890 24 24 24
0.251982 -0.601203 -0.103247 27 27 27
0.344535 -0.822024 0.109439 3 3 3
0.270870 -0.646268 -0.086040 100 100 100
0.286499 -0.683557 -0.064844 96 96 96
0.217044 -0.517845 0.109143 9 9 9
0.298008 -0.711015 -0.040403 100 100 100
0.215440 -0.514017 0.128672 10 10 10
0.309193 -0.737702 -0.013962 97 97 97
0.286008 -0.682386 0.198255 6 6 6
0.231940 -0.564687 -0.163574 100 100 100
0.328219 -0.799088 0.015079 70 70 70
0.239151 -0.582242 -0.145318 50 50 50
0.340719 -0.829521 0.046998 32 32 32
0.232727 -0.566602 -0.119065 7 7 7
0.361841 -0.880945 0.083321 39 39 39
0.249925 -0.608473 -0.104185 26 26 26
0.335627 -0.817123 0.108464 6 6 6
0.269255 -0.655535 -0.087015 100 100 100
0.275544 -0.670845 -0.063449 92 92 92
0.207366 -0.504857 0.106090 9 9 9
0.295947 -0.720520 -0.040822 100 100 100
0.211756 -0.515545 0.128672 10 10 10
0.303906 -0.739896 -0.013962 97 97 97
0.273778 -0.666545 0.193079 6 6 6
0.229738 -0.559326 -0.162021 100 100 100
0.324420 -0.789839 0.014904 91 91 91
0.240632 -0.585847 -0.146218 45 45 45
0.343754 -0.836911 0.047416 31 31 31
0.234965 -0.572050 -0.120210 7 7 7
0.360327 -0.877259 0.082972 46 46 46
0.245422 -0.597509 -0.102308 27 27 27
0.331856 -0.807942 0.107245 6 6 6
0.267747 -0.651862 -0.086527 100 100 100
0.277058 -0.674531 -0.063798 91 91 91
0.215571 -0.524833 0.110288 9 9 9
0.292912 -0.713130 -0.040403 100 100 100
0.211756 -0.515545 0.128672 10 10 10
0.303146 -0.738046 -0.013927 97 97 97
0.251758 -0.612935 0.177550 8 8 8
0.225828 -0.560916 -0.162021 100 100 100
0.322632 -0.801360 0.015079 94 94 94
0.231441 -0.574858 -0.143069 42 42 42
0.337157 -0.837438 0.047312 39 39 39
0.227299 -0.564570 -0.118302 7 7 7
0.354938 -0.881602 0.083147 33 33 33
0.241982 -0.601040 -0.102621 20 20 20
0.318793 -0.791825 0.104808 11 11 11
0.263190 -0.653716 -0.086527 100 100 100
0.305429 -0.758630 0.129528 7 7 7
0.270854 -0.672753 -0.063449 83 83 83
0.199437 -0.495365 0.103800 9 9 9
0.286435 -0.711452 -0.040194 100 100 100
0.216885 -0.538704 0.134071 10 10 10
0.302467 -0.751275 -0.014136 85 85 85
0.251802 -0.625431 0.180656 7 7 7
0.228714 -0.568084 -0.164091 100 100 100
0.321138 -0.797650 0.015009 72 72 72
0.232897 -0.578474 -0.143969 38 38 38
0.335666 -0.833733 0.047102 40 40 40
0.229499 -0.570034 -0.119446 7 7 7
0.351217 -0.872361 0.082275 28 28 28
0.250098 -0.621197 -0.106063 19 19 19
0.320276 -0.795508 0.105295 10 10 10
0.261707 -0.650033 -0.086040 100 100 100
0.311331 -0.773290 0.132031 13 13 13
0.270854 -0.672753 -0.063449 83 83 83
0.206036 -0.511756 0.107235 9 9 9
0.287926 -0.715157 -0.040403 100 100 100
0.229986 -0.571243 0.142169 9 9 9
0.299480 -0.743855 -0.013997 88 88 88
0.274890 -0.682777 0.197220 6 6 6
0.223325 -0.566073 -0.163056 100 100 100
0.319231 -0.809173 0.015184 86 86 86
0.229568 -0.581898 -0.144419 34 34 34
0.332036 -0.841629 0.047416 46 46 46
0.215427 -0.546055 -0.114104 7 7 7
0.348043 -0.882205 0.082972 23 23 23
0.245755 -0.622928 -0.106063 19 19 19
0.327828 -0.830963 0.109682 9 9 9
0.254977 -0.646304 -0.085309 100 100 100
0.321149 -0.814033 0.138601 10 10 10
0.269076 -0.682041 -0.064147 81 81 81
0.208222 -0.527792 0.110288 9 9 9
0.284393 -0.720866 -0.040613 100 100 100
0.218840 -0.554707 0.137670 29 29 29
0.293546 -0.744067 -0.013962 97 97 97
0.298475 -0.756561 0.217926 4 4 4
0.218362 -0.553494 -0.159433 100 100 100
0.317030 -0.803592 0.015079 70 70 70
0.228853 -0.580086 -0.143969 31 31 31
0.331303 -0.839771 0.047312 55 55 55
0.225514 -0.571622 -0.119446 7 7 7
0.345119 -0.874791 0.082275 28 28 28
0.247930 -0.628441 -0.107001 25 25 25
0.338027 -0.856815 0.113095 4 4 4
0.257891 -0.653691 -0.086283 100 100 100
0.329123 -0.834246 0.142042 13 13 13
0.264688 -0.670920 -0.063101 93 93 93
1.198177 -3.037086 0.634631 1 1 1
0.283660 -0.719008 -0.040508 100 100 100
0.217410 -0.551081 0.136770 30 30 30
0.292812 -0.742207 -0.013927 100 100 100
0.275788 -0.699055 0.201361 6 6 6
0.213796 -0.553203 -0.158915 100 100 100
0.304924 -0.788999 0.014765 70 70 70
0.225500 -0.583487 -0.144419 15 15 15
0.326872 -0.845790 0.047521 53 53 53
0.230010 -0.595158 -0.124026 6 6 6
0.339003 -0.877179 0.082275 37 37 37
0.241400 -0.624629 -0.106063 26 26 26
0.331321 -0.857302 0.112851 2 2 2
0.253321 -0.655475 -0.086283 100 100 100
0.319730 -0.827310 0.140478 14 14 14
0.259998 -0.672752 -0.063101 100 100 100
1.152175 -2.981283 0.621274 1 1 1
0.278633 -0.720971 -0.040508 100 100 100
