1.371113 2.941701 0.514044 28 28 28
1.056340 2.266361 -0.218761 34 34 34
1.301323 2.791969 0.598759 61 61 61
1.080016 2.317157 -0.133980 28 28 28
1.227488 2.633556 0.670804 60 60 60
1.413336 3.032291 -0.058396 57 57 57
1.169515 2.509175 0.741775 43 43 43
1.461908 3.080159 0.059513 55 55 55
1.495239 3.150385 0.182757 54 54 54
1.521493 3.205702 0.310449 63 63 63
1.476768 3.111467 0.422887 49 49 49
1.036716 2.184303 -0.296874 28 28 28
1.390769 2.930273 0.513731 39 39 39
1.065302 2.244531 -0.217366 34 34 34
1.317416 2.775721 0.597232 57 57 57
1.085889 2.287908 -0.132724 30 30 30
1.249186 2.631965 0.672604 58 58 58
1.427611 3.007898 -0.058117 56 56 56
1.183690 2.493969 0.739705 50 50 50
1.452477 3.060287 0.059129 51 51 51
1.488388 3.135950 0.181920 55 55 55
1.512951 3.187702 0.308706 59 59 59
1.475916 3.109673 0.422643 52 52 52
1.006926 2.121536 -0.288343 36 36 36
1.397545 2.944549 0.516234 52 52 52
1.060176 2.233731 -0.216321 37 37 37
1.314049 2.768627 0.595706 60 60 60
1.075613 2.266256 -0.131468 31 31 31
1.249186 2.631965 0.672604 59 59 59
1.424182 3.000671 -0.057977 58 58 58
1.185347 2.497459 0.740740 63 63 63
0.943880 1.953379 -0.581308 1 1 1
1.470326 3.042871 0.058989 51 51 51
0.983501 2.035377 -0.521886 1 1 1
1.496341 3.096710 0.180245 57 57 57
0.962639 1.992202 -0.430083 1 1 1
1.529967 3.166299 0.307660 60 60 60
1.494135 3.092144 0.421668 52 52 52
0.995802 2.060834 -0.281031 24 24 24
1.412052 2.922271 0.514044 50 50 50
1.078345 2.231657 -0.216843 48 48 48
1.333345 2.759386 0.595706 61 61 61
1.087932 2.251499 -0.131049 38 38 38
1.262443 2.612652 0.669904 57 57 57
1.438135 2.976252 -0.057698 57 57 57
1.208637 2.501299 0.744364 63 63 63
0.935475 1.935985 -0.576131 1 1 1
1.465976 3.033868 0.058815 55 55 55
0.952979 1.972210 -0.505690 1 1 1
1.487652 3.078726 0.179198 55 55 55
0.976306 2.020486 -0.436189 1 1 1
1.524766 3.155535 0.306614 60 60 60
0.981475 2.031183 -0.357296 1 1 1
1.493272 3.090357 0.421424 49 49 49
0.988029 2.044747 -0.278837 22 22 22
1.410333 2.918713 0.513418 49 49 49
1.080945 2.237039 -0.217366 72 72 72
1.335053 2.762921 0.596469 60 60 60
1.090539 2.256894 -0.131363 63 63 63
1.260747 2.609143 0.669004 57 57 57
1.429435 2.958246 -0.057349 55 55 55
1.206956 2.497820 0.743328 63 63 63
0.942999 1.917272 -0.572508 1 1 1
1.478295 3.005616 0.058466 57 57 57
0.958124 1.948022 -0.501191 1 1 1
1.504701 3.059305 0.178675 51 51 51
0.973058 1.978386 -0.428557 1 1 1
1.529171 3.109056 0.303128 55 55 55
0.986041 2.004783 -0.353855 1 1 1
1.519190 3.088763 0.422643 57 57 57
1.007537 2.048488 -0.280299 36 36 36
1.427187 2.901706 0.512166 48 48 48
1.093898 2.224075 -0.216843 78 78 78
1.359508 2.764104 0.598759 58 58 58
1.107150 2.251017 -0.131468 57 57 57
1.280652 2.603775 0.669904 57 57 57
1.439462 2.926662 -0.056930 57 57 57
1.219248 2.478932 0.740222 67 67 67
0.946410 1.924206 -0.574578 1 1 1
1.464174 2.976905 0.057907 57 57 57
0.958984 1.949771 -0.501641 2 2 2
1.495886 3.041383 0.177628 50 50 50
0.964393 1.960770 -0.424741 3 3 3
1.520378 3.091178 0.301385 55 55 55
0.986041 2.004783 -0.353855 3 3 3
1.520066 3.090544 0.422887 60 60 60
1.003156 2.039581 -0.279081 27 27 27
1.431547 2.910569 0.513731 51 51 51
1.087743 2.211560 -0.215623 59 59 59
1.356043 2.757057 0.597232 60 60 60
1.111557 2.259978 -0.131991 51 51 51
1.285812 2.614267 0.672604 58 58 58
1.434167 2.915896 -0.056720 58 58 58
1.222659 2.485866 0.742293 63 63 63
1.477760 2.952306 0.057628 57 57 57
1.011824 2.021447 -0.521886 1 1 1
1.511719 3.020149 0.177000 51 51 51
0.990361 1.978568 -0.430083 1 1 1
1.539246 3.075144 0.300862 50 50 50
0.993823 1.985485 -0.351665 1 1 1
1.541605 3.079857 0.422887 70 70 70
1.004043 2.005901 -0.275425 19 19 19
1.454484 2.905803 0.514669 48 48 48
1.107615 2.212821 -0.216495 54 54 54
1.369985 2.736989 0.594942 62 62 62
1.125520 2.248591 -0.131782 47 47 47
1.304032 2.605227 0.672604 59 59 59
1.449118 2.895083 -0.056511 58 58 58
1.239984 2.477270 0.742293 63 63 63
1.479550 2.955882 0.057698 61 61 61
1.500097 2.996931 0.175639 55 55 55
1.530328 3.057327 0.299119 51 51 51
1.538940 3.074532 0.422155 81 81 81
1.000489 1.998801 -0.274450 22 22 22
1.454484 2.905803 0.514669 47 47 47
1.111182 2.219947 -0.217192 55 55 55
1.375257 2.747523 0.597232 58 58 58
1.129990 2.257521 -0.132305 49 49 49
1.297054 2.591286 0.669004 60 60 60
1.440167 2.877201 -0.056162 58 58 58
1.243442 2.484180 0.744364 66 66 66
1.486935 2.920794 0.057209 61 61 61
1.513213 2.972412 0.174802 55 55 55
1.548391 3.041513 0.298596 52 52 52
1.559832 3.063985 0.422155 82 82 82
1.003263 1.970716 -0.271525 19 19 19
1.468852 2.885273 0.512792 47 47 47
1.131690 2.222986 -0.218238 52 52 52
1.395708 2.741597 0.597995 58 58 58
1.147142 2.253337 -0.132515 45 45 45
1.318198 2.589343 0.670804 58 58 58
1.450646 2.849511 -0.055813 62 62 62
1.260323 2.475659 0.744364 63 63 63
1.482399 2.911883 0.057034 59 59 59
1.505964 2.958173 0.173965 54 54 54
1.535737 3.016655 0.296155 53 53 53
1.560732 3.065754 0.422399 79 79 79
1.004164 1.972485 -0.271769 17 17 17
1.468852 2.885273 0.512792 49 49 49
1.114516 2.189250 -0.214926 25 25 25
1.395708 2.741597 0.597995 60 60 60
1.131738 2.223079 -0.130735 25 25 25
1.316430 2.585870 0.669904 59 59 59
1.441574 2.831691 -0.055464 62 62 62
1.253311 2.461886 0.740222 65 65 65
1.488897 2.874828 0.056511 57 57 57
0.960733 1.855026 -0.482295 1 1 1
1.521068 2.936946 0.173337 54 54 54
1.547596 2.988169 0.294412 57 57 57
1.576619 3.044208 0.420937 66 66 66
1.018823 1.967189 -0.272012 12 12 12
1.488959 2.874949 0.512792 48 48 48
1.093122 2.110648 -0.207954 34 34 34
1.411203 2.724813 0.596469 56 56 56
1.109571 2.142410 -0.126444 30 30 30
1.339828 2.586999 0.672604 58 58 58
1.453950 2.807352 -0.055185 58 58 58
1.274021 2.459938 0.742293 65 65 65
0.973729 1.880120 -0.567331 1 1 1
1.478781 2.855296 0.056127 59 59 59
0.960733 1.855026 -0.482295 1 1 1
1.512801 2.920984 0.172395 59 59 59
0.994072 1.919398 -0.420161 1 1 1
1.539350 2.972246 0.292843 58 58 58
1.013837 1.957561 -0.349162 1 1 1
1.566577 3.024818 0.418256 63 63 63
1.020649 1.970715 -0.272500 6 6 6
1.490776 2.878457 0.513418 50 50 50
1.088540 2.101802 -0.207082 31 31 31
1.409397 2.721327 0.595706 41 41 41
1.100386 2.124675 -0.125397 32 32 32
1.338035 2.583539 0.671704 58 58 58
1.450272 2.800250 -0.055045 62 62 62
1.272245 2.456507 0.741258 63 63 63
0.977503 1.856355 -0.562155 1 1 1
1.495386 2.839856 0.056022 57 57 57
0.983325 1.867410 -0.487244 1 1 1
1.516829 2.880577 0.170615 54 54 54
1.005284 1.909113 -0.419398 1 1 1
1.554904 2.952884 0.291972 60 60 60
1.036341 1.968093 -0.352290 1 1 1
1.581581 3.003546 0.416793 61 61 61
1.030340 1.956696 -0.271525 3 3 3
1.514016 2.875234 0.514669 49 49 49
1.100965 2.090818 -0.206733 32 32 32
1.428802 2.713407 0.596087 40 40 40
1.109239 2.106532 -0.124769 31 31 31
1.350142 2.564025 0.669004 57 57 57
1.461845 2.776158 -0.054766 58 58 58
1.294336 2.458046 0.744364 62 62 62
0.968502 1.839261 -0.556979 1 1 1
1.487933 2.825701 0.055743 54 54 54
0.961534 1.826027 -0.476446 4 4 4
0.990648 1.881319 -0.413292 1 1 1
1.545621 2.935255 0.290229 57 57 57
1.039103 1.973337 -0.353229 1 1 1
1.574181 2.989494 0.414843 61 61 61
1.026640 1.949670 -0.270550 2 2 2
1.511255 2.869991 0.513731 51 51 51
1.095395 2.080241 -0.205688 32 32 32
1.431546 2.718619 0.597232 50 50 50
1.105517 2.099463 -0.124350 32 32 32
1.350142 2.564025 0.669004 58 58 58
1.457186 2.767311 -0.054591 32 32 32
1.294336 2.458046 0.744364 65 65 65
0.956094 1.784604 -0.542485 1 1 1
1.022420 1.908404 0.113464 27 27 27
0.998523 1.863799 -0.411003 1 1 1
1.555295 2.903045 0.288137 60 60 60
1.066257 1.990228 -0.357609 1 1 1
1.588034 2.964154 0.412893 59 59 59
1.044315 1.949273 -0.271525 2 2 2
1.528954 2.853879 0.512792 46 46 46
1.103666 2.060056 -0.204467 39 39 39
1.449109 2.704844 0.596469 61 61 61
1.096932 2.047486 -0.121733 10 10 10
1.373977 2.564605 0.671704 59 59 59
1.306419 2.438504 0.741258 66 66 66
0.936936 1.748843 -0.531614 20 20 20
1.005725 1.877242 0.037174 17 17 17
0.965373 1.801923 -0.471947 54 54 54
1.016761 1.897841 0.112836 25 25 25
0.993887 1.855146 -0.409094 2 2 2
1.544004 2.881970 0.286045 55 55 55
1.055995 1.971075 -0.354168 1 1 1
1.580534 2.950156 0.410943 63 63 63
1.042440 1.945773 -0.271037 2 2 2
1.530820 2.857362 0.513418 50 50 50
1.092376 2.038981 -0.202376 40 40 40
1.449109 2.704844 0.596469 61 61 61
0.962999 1.797492 -0.106870 29 29 29
1.375817 2.568040 0.672604 58 58 58
1.306419 2.438504 0.741258 63 63 63
0.950666 1.745819 -0.532650 39 39 39
1.010829 1.856303 0.036894 32 32 32
0.965500 1.773061 -0.466099 62 62 62
1.027745 1.887368 0.112627 25 25 25
0.981141 1.801785 -0.398791 14 14 14
1.561679 2.867895 0.285697 60 60 60
1.073166 1.970780 -0.355419 1 1 1
1.586338 2.913179 0.407287 57 57 57
1.061356 1.949093 -0.272500 2 2 2
1.552123 2.850345 0.514044 49 49 49
1.108135 2.034998 -0.202724 38 38 38
1.465609 2.691470 0.595706 60 60 60
0.968526 1.778617 -0.106137 28 28 28
1.390469 2.553482 0.671254 51 51 51
0.979270 1.798348 -0.035743 27 27 27
1.324835 2.432949 0.742293 63 63 63
0.944199 1.733942 -0.529026 49 49 49
1.010829 1.856303 0.036894 33 33 33
0.954317 1.752524 -0.460700 54 54 54
1.019149 1.871582 0.111685 27 27 27
0.974569 1.789715 -0.396119 45 45 45
1.554057 2.853896 0.284302 57 57 57
1.077890 1.979455 -0.356983 1 1 1
1.582541 2.906205 0.406312 60 60 60
1.055660 1.938633 -0.271037 2 2 2
1.551179 2.848611 0.513731 51 51 51
1.102418 2.024499 -0.201678 40 40 40
1.465609 2.691470 0.595706 58 58 58
0.958974 1.761076 -0.105091 30 30 30
1.380218 2.534656 0.666305 37 37 37
0.981183 1.801861 -0.035812 30 30 30
1.326682 2.436342 0.743328 63 63 63
0.950030 1.715312 -0.525403 54 54 54
1.014397 1.831529 0.036545 34 34 34
0.970610 1.752469 -0.462499 62 62 62
1.024774 1.850264 0.110848 28 28 28
0.978790 1.767239 -0.392685 65 65 65
1.570578 2.835731 0.283605 55 55 55
1.090112 1.968235 -0.356358 1 1 1
1.600411 2.889597 0.405581 66 66 66
1.067582 1.927556 -0.270550 2 2 2
1.570566 2.835710 0.513418 50 50 50
1.111085 2.006101 -0.200633 40 40 40
1.486734 2.684348 0.596469 61 61 61
0.967681 1.747180 -0.104672 30 30 30
1.403041 2.533238 0.668555 42 42 42
0.986300 1.780799 -0.035533 33 33 33
1.344082 2.426786 0.743328 63 63 63
0.943478 1.703482 -0.521779 52 52 52
1.012460 1.828030 0.036476 33 33 33
0.964945 1.742240 -0.459800 62 62 62
1.024774 1.850264 0.110848 28 28 28
0.974034 1.758651 -0.390777 54 54 54
1.555132 2.807844 0.280816 53 53 53
1.092027 1.971691 -0.356983 1 1 1
1.594641 2.879178 0.404119 63 63 63
1.064697 1.922346 -0.269819 2 2 2
1.570566 2.835710 0.513418 48 48 48
1.099501 1.985186 -0.198541 46 46 46
1.490538 2.691218 0.597995 60 60 60
0.967681 1.747180 -0.104672 30 30 30
1.406818 2.540057 0.670354 45 45 45
0.978550 1.766804 -0.035254 34 34 34
1.342210 2.423406 0.742293 63 63 63
0.949661 1.686754 -0.518673 51 51 51
1.015387 1.803492 0.036126 33 33 33
0.976128 1.733763 -0.459350 56 56 56
1.033747 1.836103 0.110429 32 32 32
0.983398 1.746676 -0.389632 56 56 56
1.564922 2.779558 0.279073 57 57 57
1.083475 1.924429 -0.349787 1 1 1
1.607885 2.855867 0.402413 70 70 70
1.082961 1.923515 -0.271037 2 2 2
1.589355 2.822955 0.513105 52 52 52
1.111378 1.973989 -0.198192 45 45 45
1.503511 2.670482 0.595706 60 60 60
0.973975 1.729940 -0.104044 31 31 31
1.431209 2.542060 0.673503 55 55 55
0.990860 1.759930 -0.035254 36 36 36
1.357200 2.410610 0.741258 65 65 65
0.945870 1.680020 -0.516603 46 46 46
1.009500 1.793037 0.035917 37 37 37
0.970392 1.723575 -0.456651 77 77 77
1.031787 1.832622 0.110220 40 40 40
0.982435 1.744966 -0.389250 52 52 52
1.560035 2.770877 0.278201 58 58 58
1.097043 1.948527 -0.354168 1 1 1
1.586460 2.817811 0.397050 57 57 57
1.083935 1.925245 -0.271281 2 2 2
1.594201 2.831561 0.514669 56 56 56
1.109423 1.970517 -0.197844 45 45 45
1.503511 2.670482 0.595706 60 60 60
0.966137 1.716016 -0.103207 34 34 34
1.427384 2.535268 0.671704 56 56 56
0.986936 1.752960 -0.035114 34 34 34
1.359096 2.413977 0.742293 63 63 63
0.956992 1.673710 -0.516603 49 49 49
1.019385 1.782831 0.035847 34 34 34
0.972129 1.700184 -0.452152 69 69 69
1.037970 1.815336 0.109591 48 48 48
0.993987 1.738412 -0.389250 68 68 68
1.574422 2.753551 0.277504 51 51 51
1.102098 1.927490 -0.351665 1 1 1
1.602157 2.802058 0.396319 63 63 63
1.093723 1.912844 -0.270550 2 2 2
1.613926 2.822641 0.514982 64 64 64
1.100711 1.925064 -0.194009 40 40 40
1.521189 2.660451 0.595706 60 60 60
0.974522 1.704370 -0.102892 36 36 36
1.442233 2.522362 0.670804 57 57 57
0.994570 1.739432 -0.034975 36 36 36
1.375076 2.404910 0.742293 63 63 63
0.955074 1.670356 -0.515568 49 49 49
1.014422 1.774151 0.035673 31 31 31
0.975998 1.706951 -0.453951 79 79 79
1.034996 1.810134 0.109277 51 51 51
0.985216 1.723073 -0.385816 80 80 80
1.024637 1.792017 -0.326948 4 4 4
1.598216 2.795165 0.395344 66 66 66
1.085841 1.899058 -0.268600 2 2 2
1.607062 2.810637 0.512792 76 76 76
1.076976 1.883553 -0.189825 42 42 42
1.525087 2.667269 0.597232 58 58 58
0.971548 1.699168 -0.102578 38 38 38
1.438364 2.515595 0.669004 54 54 54
0.982659 1.718600 -0.034556 34 34 34
1.380830 2.414972 0.745399 62 62 62
0.956609 1.644940 -0.509874 52 52 52
1.020363 1.754567 0.035428 26 26 26
0.989464 1.701435 -0.454401 36 36 36
1.036188 1.781780 0.108021 41 41 41
0.996833 1.714107 -0.385434 48 48 48
1.059704 1.822216 0.184422 17 17 17
1.612674 2.773078 0.393882 57 57 57
1.106718 1.903059 -0.270306 2 2 2
1.625636 2.795366 0.512166 63 63 63
1.066715 1.834273 -0.185642 42 42 42
1.546572 2.659412 0.597995 58 58 58
0.983977 1.692001 -0.102578 38 38 38
1.456765 2.504984 0.669004 39 39 39
0.993220 1.707894 -0.034486 31 31 31
1.394610 2.398105 0.743328 61 61 61
0.951753 1.636590 -0.507285 49 49 49
1.016341 1.747652 0.035289 27 27 27
1.038197 1.785233 0.108231 39 39 39
1.052693 1.810160 0.183201 34 34 34
1.015898 1.746890 -0.320065 8 8 8
1.603693 2.757634 0.391688 60 60 60
1.113703 1.915071 -0.272012 2 2 2
1.627622 2.798781 0.512792 63 63 63
1.044680 1.796382 -0.181807 27 27 27
1.544598 2.656018 0.597232 58 58 58
0.983977 1.692001 -0.102578 39 39 39
1.463623 2.516776 0.672154 40 40 40
0.991209 1.704436 -0.034416 34 34 34
1.392668 2.394765 0.742293 63 63 63
0.963854 1.631737 -0.507803 56 56 56
1.020077 1.726920 0.035010 28 28 28
1.121938 1.899362 -0.509289 4 4 4
1.046261 1.771247 0.107812 39 39 39
1.153259 1.952387 -0.440769 3 3 3
1.055870 1.787514 0.181633 26 26 26
1.022742 1.731431 -0.318501 21 21 21
1.611321 2.727853 0.389007 57 57 57
1.121665 1.898900 -0.270794 2 2 2
1.640607 2.777433 0.510915 60 60 60
1.062963 1.799522 -0.182853 41 41 41
1.558647 2.638681 0.595706 61 61 61
0.983282 1.664628 -0.101322 38 38 38
1.484684 2.513467 0.673953 41 41 41
0.998720 1.690763 -0.034277 30 30 30
1.406971 2.381904 0.741258 62 62 62
0.963854 1.631737 -0.507803 60 60 60
1.018043 1.723476 0.034940 28 28 28
1.062471 1.798689 -0.482295 5 5 5
1.037119 1.755770 0.106870 35 35 35
1.150264 1.947316 -0.439624 4 4 4
1.058910 1.792660 0.182156 28 28 28
1.021737 1.729730 -0.318188 32 32 32
1.602234 2.712471 0.386813 60 60 60
1.119646 1.895482 -0.270306 2 2 2
1.639602 2.775732 0.510602 58 58 58
1.055870 1.787514 -0.181633 37 37 37
1.562641 2.645442 0.597232 56 56 56
0.977187 1.654310 -0.100694 40 40 40
1.479729 2.505077 0.671704 56 56 56
0.998720 1.690763 -0.034277 34 34 34
1.410901 2.388557 0.743328 62 62 62
0.973234 1.621656 -0.506768 56 56 56
1.032109 1.719756 0.035010 27 27 27
1.042157 1.736499 0.106137 39 39 39
1.153728 1.922405 -0.435808 4 4 4
1.058070 1.763015 0.179889 26 26 26
1.025656 1.709005 -0.315685 42 42 42
1.618067 2.696113 0.386082 63 63 63
1.134894 1.891023 -0.270794 2 2 2
1.640643 2.733730 0.504970 55 55 55
1.066273 1.776682 -0.181284 36 36 36
1.580061 2.632785 0.596851 57 57 57
0.990768 1.650873 -0.100904 38 38 38
1.491165 2.484660 0.669004 57 57 57
1.000209 1.666603 -0.033927 37 37 37
1.431518 2.385275 0.745399 62 62 62
0.963293 1.605091 -0.501591 58 58 58
1.025935 1.709469 0.034800 28 28 28
0.988761 1.647529 -0.443603 63 63 63
1.045240 1.741636 0.106451 56 56 56
1.139584 1.898838 -0.430465 4 4 4
1.051919 1.752765 0.178844 26 26 26
1.024640 1.707311 -0.315372 24 24 24
1.611938 2.685900 0.384620 66 66 66
1.138980 1.897832 -0.271769 2 2 2
1.632511 2.720180 0.502468 52 52 52
1.054995 1.757890 -0.179367 28 28 28
1.579051 2.631102 0.596469 56 56 56
0.988713 1.647448 -0.100694 31 31 31
1.493170 2.488002 0.669904 55 55 55
0.994035 1.656316 -0.033718 36 36 36
1.427542 2.378649 0.743328 63 63 63
0.971907 1.595367 -0.500556 60 60 60
1.026846 1.685549 0.034451 27 27 27
0.993583 1.630949 -0.440904 54 54 54
1.051572 1.726138 0.105928 48 48 48
1.135810 1.864412 -0.424359 3 3 3
1.057301 1.735541 0.177798 26 26 26
1.036968 1.702165 -0.315685 10 10 10
1.622487 2.663283 0.382913 70 70 70
1.153608 1.893627 -0.272256 2 2 2
1.647433 2.704232 0.501529 56 56 56
1.065594 1.749153 -0.179192 34 34 34
1.593402 2.615542 0.595324 60 60 60
0.997539 1.637443 -0.100485 24 24 24
1.511666 2.481373 0.670804 57 57 57
1.002917 1.646271 -0.033648 33 33 33
1.439266 2.362530 0.741258 62 62 62
0.967886 1.588768 -0.498485 61 61 61
1.020604 1.675303 0.034242 28 28 28
0.983445 1.614307 -0.436405 60 60 60
1.052611 1.727843 0.106033 21 21 21
1.082696 1.777227 -0.404515 4 4 4
1.053155 1.728735 0.177100 26 26 26
1.602864 2.631073 0.378282 63 63 63
1.152575 1.891931 -0.272012 2 2 2
1.638183 2.689049 0.498713 54 54 54
1.062484 1.744049 -0.178669 30 30 30
1.594424 2.617218 0.595706 60 60 60
0.989226 1.623797 -0.099648 21 21 21
1.515721 2.488030 0.672604 56 56 56
1.002917 1.646271 -0.033648 33 33 33
1.443286 2.369129 0.743328 65 65 65
0.980987 1.585258 -0.499521 65 65 65
1.028065 1.661335 0.034102 33 33 33
0.996741 1.610716 -0.437305 52 52 52
1.090923 1.762912 0.108649 19 19 19
1.021728 1.651094 -0.377420 24 24 24
1.063101 1.717952 0.176752 26 26 26
1.245286 2.012360 -0.374817 1 1 1
1.612836 2.606315 0.376333 61 61 61
1.161577 1.877087 -0.271037 2 2 2
1.651719 2.669148 0.497149 56 56 56
1.071488 1.731506 -0.178146 27 27 27
1.616789 2.612701 0.597232 62 62 62
1.002640 1.620249 -0.099857 22 22 22
1.524850 2.464131 0.669004 57 57 57
1.010177 1.632428 -0.033509 34 34 34
1.461824 2.362281 0.744364 61 61 61
1.038932 1.678895 -0.529026 11 11 11
1.030170 1.664736 0.034172 34 34 34
1.123898 1.816199 -0.493093 7 7 7
1.141370 1.844434 0.113674 19 19 19
1.009331 1.631060 -0.372841 34 34 34
1.059956 1.712869 0.176229 28 28 28
1.259839 2.035876 -0.379197 1 1 1
1.608658 2.599563 0.375358 61 61 61
1.159487 1.873711 -0.270550 2 2 2
1.638206 2.647311 0.493081 55 55 55
1.068343 1.726423 -0.177623 25 25 25
1.616789 2.612701 0.597232 61 61 61
1.004742 1.623645 -0.100066 21 21 21
1.528952 2.470759 0.670804 58 58 58
0.999654 1.615423 -0.033160 40 40 40
1.463857 2.365566 0.745399 61 61 61
1.139669 1.811866 -0.573543 13 13 13
1.039151 1.652062 0.034067 41 41 41
1.173496 1.865646 -0.508839 20 20 20
1.188889 1.890118 0.117023 23 23 23
1.025441 1.630265 -0.374367 58 58 58
1.060814 1.686502 0.174311 30 30 30
1.282091 2.038291 -0.381387 1 1 1
1.623443 2.580979 0.374383 63 63 63
1.178476 1.873563 -0.271769 2 2 2
1.652309 2.626871 0.491517 57 57 57
1.072483 1.705053 -0.176229 23 23 23
1.642169 2.610751 0.599522 60 60 60
1.018744 1.619618 -0.100276 20 20 20
1.547023 2.459485 0.670804 56 56 56
1.007210 1.601281 -0.033020 36 36 36
1.472929 2.341690 0.741258 61 61 61
1.147897 1.824948 -0.577684 26 26 26
1.030634 1.638520 0.033788 41 41 41
1.174534 1.867295 -0.509289 21 21 21
1.171874 1.863068 0.115348 21 21 21
1.021260 1.623618 -0.372841 62 62 62
1.054449 1.676383 0.173266 31 31 31
1.273677 2.024915 -0.378884 1 1 1
1.612874 2.564176 0.371945 63 63 63
1.175305 1.868522 -0.271037 2 2 2
1.642843 2.611822 0.488701 55 55 55
1.068240 1.698307 -0.175532 19 19 19
1.632761 2.595794 0.596087 53 53 53
1.018744 1.619618 -0.100276 19 19 19
1.544947 2.456186 0.669904 57 57 57
1.005081 1.597896 -0.032950 40 40 40
1.474986 2.344961 0.742293 62 62 62
1.167890 1.828286 -0.581308 8 8 8
1.034512 1.619489 0.033544 39 39 39
1.179149 1.845912 -0.505690 6 6 6
1.078409 1.688208 0.104986 21 21 21
1.031513 1.614794 -0.372459 64 64 64
1.066127 1.668981 0.173266 30 30 30
1.292036 2.022632 -0.380136 1 1 1
1.623255 2.541144 0.370239 57 57 57
1.192595 1.866963 -0.272012 2 2 2
1.652529 2.586972 0.486198 52 52 52
1.087578 1.702562 -0.176752 9 9 9
1.647673 2.579369 0.594942 46 46 46
1.027876 1.609100 -0.100066 19 19 19
1.570450 2.458479 0.673503 56 56 56
1.014059 1.587470 -0.032880 42 42 42
1.489241 2.331350 0.741258 62 62 62
1.162690 1.820146 -0.578719 11 11 11
1.034512 1.619489 0.033544 43 43 43
1.182296 1.850839 -0.507040 13 13 13
1.049379 1.642763 0.102160 36 36 36
1.025172 1.604867 -0.370169 64 64 64
1.065054 1.667302 0.173091 33 33 33
1.300543 2.035950 -0.382639 1 1 1
1.617912 2.532779 0.369020 61 61 61
1.189390 1.861944 -0.271281 2 2 2
1.648276 2.580313 0.484947 55 55 55
1.090796 1.707599 -0.177275 4 4 4
1.649786 2.582678 0.595706 53 53 53
1.027876 1.609100 -0.100066 18 18 18
1.562057 2.445340 0.669904 56 56 56
1.009753 1.580729 -0.032741 42 42 42
1.495481 2.341118 0.744364 57 57 57
1.167695 1.800844 -0.575096 10 10 10
1.045511 1.612410 0.033544 45 45 45
1.178963 1.818222 -0.500291 9 9 9
1.055104 1.627203 0.101636 35 35 35
1.028595 1.586321 -0.367498 58 58 58
1.073127 1.654998 0.172568 36 36 36
1.322969 2.040310 -0.385142 1 1 1
1.628634 2.511714 0.367558 59 59 59
1.197716 1.847142 -0.270306 2 2 2
1.658278 2.557431 0.482757 56 56 56
1.102394 1.700135 -0.177275 3 3 3
1.672668 2.579624 0.597614 71 71 71
1.040978 1.605418 -0.100276 19 19 19
1.580786 2.437922 0.670804 57 57 57
1.011785 1.560396 -0.032461 39 39 39
1.515586 2.337368 0.746434 51 51 51
1.161389 1.791118 -0.571990 9 9 9
1.042248 1.607376 0.033439 47 47 47
1.174722 1.811681 -0.498492 9 9 9
1.052931 1.623852 0.101427 35 35 35
1.026459 1.583026 -0.366735 62 62 62
1.067707 1.646640 0.171697 50 50 50
1.333716 2.056884 -0.388270 2 2 2
1.626474 2.508383 0.367070 49 49 49
1.204196 1.857136 -0.271769 2 2 2
1.647531 2.540857 0.479628 50 50 50
1.092638 1.685089 -0.175706 3 3 3
1.671600 2.577977 0.597232 71 71 71
1.045324 1.612121 -0.100694 19 19 19
1.585027 2.444462 0.672604 57 57 57
1.007433 1.553685 -0.032322 37 37 37
1.508229 2.326022 0.742811 42 42 42
1.166428 1.771672 -0.568367 12 12 12
1.042447 1.583359 0.033090 41 41 41
1.193771 1.813202 -0.501191 18 18 18
1.063143 1.614793 0.101322 37 37 37
1.032087 1.567623 -0.364827 64 64 64
1.072603 1.629161 0.170651 52 52 52
1.337180 2.031024 -0.385142 2 2 2
1.221498 1.855316 -0.272744 2 2 2
1.661971 2.524344 0.478689 52 52 52
1.104375 1.677420 -0.175706 3 3 3
1.685239 2.559685 0.595706 78 78 78
1.056553 1.604784 -0.100694 19 19 19
1.604197 2.436592 0.673503 57 57 57
1.013857 1.539933 -0.032182 39 39 39
1.522306 2.312209 0.741775 46 46 46
1.171740 1.779739 -0.570955 15 15 15
1.043547 1.585029 0.033125 43 43 43
1.187342 1.803436 -0.498492 15 15 15
1.062045 1.613125 0.101218 40 40 40
1.035326 1.572542 -0.365972 60 60 60
1.072603 1.629161 0.170651 53 53 53
1.339353 2.034324 -0.385767 2 2 2
1.088323 1.653039 0.243007 15 15 15
1.223681 1.858632 -0.273231 2 2 2
1.657625 2.517744 0.477438 54 54 54
1.104375 1.677420 -0.175706 3 3 3
1.674443 2.543288 0.591890 78 78 78
1.054357 1.601448 -0.100485 21 21 21
1.599911 2.430082 0.671704 56 56 56
1.013857 1.539933 -0.032182 40 40 40
1.521244 2.310595 0.741258 56 56 56
1.187357 1.776334 -0.572508 11 11 11
1.046808 1.566067 0.032880 47 47 47
1.197737 1.791863 -0.497592 7 7 7
1.062181 1.589066 0.100171 42 42 42
1.081736 1.618320 0.170302 48 48 48
1.357913 2.031493 -0.387019 2 2 2
1.092115 1.633848 0.241301 27 27 27
1.227802 1.836841 -0.271281 2 2 2
1.668576 2.496257 0.475561 55 55 55
1.122702 1.679608 -0.176752 3 3 3
1.689975 2.528272 0.591126 68 68 68
1.062181 1.589066 -0.100171 23 23 23
1.614671 2.415613 0.670804 57 57 57
1.022360 1.529493 -0.032112 40 40 40
1.545926 2.312768 0.745399 62 62 62
1.181989 1.768304 -0.569920 6 6 6
1.049031 1.569392 0.032950 47 47 47
1.194488 1.787003 -0.496242 5 5 5
1.054412 1.577443 0.099438 44 44 44
1.205567 1.803577 -0.421688 7 7 7
1.079521 1.615008 0.169954 48 48 48
1.362304 2.038062 -0.388270 2 2 2
1.094321 1.637149 0.241789 26 26 26
1.228905 1.838491 -0.271525 2 2 2
1.656500 2.478192 0.472119 57 57 57
1.118273 1.672982 -0.176055 3 3 3
1.687793 2.525007 0.590363 67 67 67
1.069951 1.600690 -0.100904 24 24 24
1.614671 2.415613 0.670804 58 58 58
1.013470 1.516193 -0.031833 42 42 42
1.548073 2.315980 0.746434 61 61 61
1.185322 1.747427 -0.565778 6 6 6
1.058566 1.560561 0.032915 51 51 51
1.206624 1.778831 -0.496242 4 4 4
1.067367 1.573535 0.099648 44 44 44
1.216713 1.793704 -0.421306 6 6 6
1.077068 1.587836 0.167862 42 42 42
1.380581 2.035281 -0.389522 2 2 2
1.099868 1.621448 0.240570 29 29 29
1.241391 1.830084 -0.271525 2 2 2
1.662241 2.450511 0.468991 54 54 54
1.129635 1.665332 -0.176055 3 3 3
1.696125 2.500462 0.587310 67 67 67
1.080822 1.593370 -0.100904 32 32 32
1.637639 2.414242 0.673503 60 60 60
1.020400 1.504295 -0.031728 43 43 43
1.557295 2.295796 0.743328 61 61 61
1.182069 1.742631 -0.564226 5 5 5
1.045096 1.540702 0.032496 45 45 45
1.198966 1.767542 -0.493093 5 5 5
1.067367 1.573535 0.099648 44 44 44
1.218917 1.796954 -0.422069 4 4 4
1.068120 1.574645 0.166467 34 34 34
1.371710 2.022203 -0.387019 2 2 2
1.096525 1.616519 0.239839 34 34 34
1.249191 1.841584 -0.273231 2 2 2
1.660024 2.447242 0.468365 51 51 51
1.131872 1.668629 -0.176403 3 3 3
1.680695 2.477716 0.581967 68 68 68
1.092033 1.609899 -0.101950 51 51 51
1.639827 2.417468 0.674403 57 57 57
1.020400 1.504295 -0.031728 43 43 43
1.557295 2.295796 0.743328 63 63 63
1.189824 1.727972 -0.562155 4 4 4
1.054692 1.531721 0.032461 47 47 47
1.202435 1.746288 -0.489493 3 3 3
1.073796 1.559465 0.099229 44 44 44
1.213618 1.762528 -0.415964 3 3 3
1.081347 1.570432 0.166816 40 40 40
1.391395 2.020712 -0.388583 1 1 1
1.092022 1.585935 0.236427 34 34 34
1.251885 1.818103 -0.271037 1 1 1
1.672587 2.429085 0.467113 51 51 51
1.145753 1.663969 -0.176752 2 2 2
1.686818 2.449752 0.578151 71 71 71
1.098715 1.595655 -0.101532 54 54 54
1.656664 2.405961 0.674403 58 58 58
1.033145 1.500428 -0.031798 46 46 46
1.575475 2.288051 0.744364 61 61 61
1.165720 1.692967 -0.550767 8 8 8
1.052424 1.528427 0.032392 47 47 47
1.172596 1.702952 -0.477346 7 7 7
1.064734 1.546305 0.098392 44 44 44
1.216958 1.767379 -0.417108 4 4 4
1.085867 1.576996 0.167513 40 40 40
1.090896 1.584300 0.236183 33 33 33
1.663625 2.416069 0.464610 51 51 51
1.680137 2.440050 0.575862 76 76 76
1.090786 1.584140 -0.100799 48 48 48
1.650033 2.396331 0.671704 58 58 58
1.026340 1.490546 -0.031589 51 51 51
1.577667 2.291233 0.745399 61 61 61
1.166735 1.668749 -0.545591 8 8 8
1.063334 1.520857 0.032392 49 49 49
1.190335 1.702503 -0.479596 2 2 2
1.071194 1.532099 0.097973 44 44 44
1.092557 1.562654 0.166816 45 45 45
1.102205 1.576453 0.236183 36 36 36
1.674079 2.394389 0.462733 52 52 52
1.697555 2.427965 0.575862 75 75 75
1.105527 1.581205 -0.101113 44 44 44
1.667139 2.384462 0.671704 59 59 59
1.027813 1.470053 -0.031310 52 52 52
1.596236 2.283051 0.746434 62 62 62
1.058751 1.514302 0.032252 49 49 49
1.068905 1.528826 0.097764 46 46 46
1.076574 1.539794 0.164376 42 42 42
1.096518 1.568319 0.234964 34 34 34
1.662760 2.378200 0.459604 51 51 51
1.693055 2.421529 0.574335 71 71 71
1.105527 1.581205 -0.101113 43 43 43
1.671605 2.390850 0.673503 60 60 60
1.023230 1.463497 -0.031170 52 52 52
1.591808 2.276718 0.744364 63 63 63
1.059778 1.494012 0.031973 54 54 54
1.079287 1.521514 0.097764 46 46 46
1.083572 1.527555 0.163853 41 41 41
1.104871 1.557581 0.234477 38 38 38
1.674338 2.360382 0.458353 52 52 52
1.695868 2.390734 0.569756 64 64 64
1.113953 1.570385 -0.100904 45 45 45
1.697988 2.393722 0.677553 71 71 71
1.033168 1.456499 -0.031170 47 47 47
1.605033 2.262679 0.743328 62 62 62
1.045895 1.474440 0.031554 42 42 42
1.074665 1.514998 0.097345 46 46 46
1.084725 1.529180 0.164027 42 42 42
1.101425 1.552723 0.233745 45 45 45
1.669767 2.353938 0.457102 54 54 54
1.128529 1.590932 -0.170651 1 1 1
1.686781 2.377923 0.566703 64 64 64
1.104709 1.557353 -0.100066 45 45 45
1.695733 2.390543 0.676653 75 75 75
1.035482 1.459761 -0.031240 44 44 44
1.607268 2.265831 0.744364 61 61 61
1.062004 1.475217 0.031728 51 51 51
1.082881 1.504217 0.097136 59 59 59
1.093046 1.518336 0.163678 49 49 49
1.114873 1.548657 -0.302231 1 1 1
1.109919 1.541774 0.233258 57 57 57
1.076285 1.495054 -0.226190 1 1 1
1.680389 2.334207 0.455537 57 57 57
1.109342 1.540974 -0.166119 1 1 1
1.701047 2.362903 0.565939 64 64 64
1.113221 1.546361 -0.099857 42 42 42
1.699856 2.361249 0.671704 79 79 79
1.045648 1.452496 -0.031240 37 37 37
1.627562 2.260826 0.746434 62 62 62
1.063172 1.476840 0.031763 62 62 62
1.063406 1.477165 -0.420209 1 1 1
1.070045 1.486387 0.095984 71 71 71
1.081650 1.502507 -0.359866 1 1 1
1.097702 1.524804 0.164376 60 60 60
1.080250 1.500562 -0.292845 1 1 1
1.109919 1.541774 0.233258 70 70 70
1.092522 1.517608 -0.229602 1 1 1
1.665385 2.313366 0.451470 52 52 52
1.696458 2.356529 0.564413 61 61 61
1.110887 1.543119 -0.099648 42 42 42
1.702133 2.364412 0.672604 79 79 79
1.039806 1.444382 -0.031065 29 29 29
1.629819 2.263962 0.747469 60 60 60
1.051601 1.439992 -0.477780 0 0 0
1.070842 1.466339 0.031694 74 74 74
1.038958 1.422679 -0.406712 1 1 1
1.080138 1.479069 0.095984 46 46 46
1.073326 1.469742 -0.353760 1 1 1
1.098655 1.504425 0.162981 37 37 37
1.125389 1.541032 -0.302231 1 1 1
1.112192 1.522962 0.231552 42 42 42
1.676433 2.295596 0.450218 51 51 51
1.707828 2.338586 0.562887 64 64 64
1.121365 1.535522 -0.099648 37 37 37
1.722785 2.359067 0.674403 79 79 79
1.054331 1.443730 -0.031205 25 25 25
1.640634 2.246575 0.745399 62 62 62
1.042486 1.427511 -0.473639 0 0 0
1.061407 1.453420 0.031414 45 45 45
1.086028 1.487134 0.096508 41 41 41
1.108055 1.517297 0.164376 38 38 38
1.127412 1.543802 0.234720 36 36 36
1.671773 2.289215 0.448967 54 54 54
1.696249 2.322731 0.559070 60 60 60
1.114297 1.525844 -0.099020 32 32 32
1.727382 2.365362 0.676203 83 83 83
1.053151 1.442115 -0.031170 25 25 25
1.640634 2.246575 0.745399 62 62 62
1.080116 1.457032 0.031659 39 39 39
1.109725 1.496973 0.097659 40 40 40
1.126004 1.518932 0.165422 40 40 40
1.126608 1.519748 0.232283 32 32 32
1.683406 2.270845 0.447715 50 50 50
1.703474 2.297916 0.556017 61 61 61
1.118051 1.508205 -0.098392 32 32 32
1.734980 2.340416 0.672604 72 72 72
1.069398 1.442574 -0.031345 27 27 27
1.658969 2.237881 0.746434 61 61 61
1.087261 1.466671 0.031868 39 39 39
1.106157 1.492160 0.097345 44 44 44
1.130750 1.525335 0.166119 40 40 40
1.133701 1.529316 0.233745 37 37 37
1.678700 2.264498 0.446464 52 52 52
1.698797 2.291607 0.554491 64 64 64
1.113293 1.501787 -0.097973 34 34 34
1.718733 2.318500 0.666305 72 72 72
1.069398 1.442574 -0.031345 27 27 27
1.661270 2.240985 0.747469 60 60 60
1.104430 1.468826 0.032078 39 39 39
1.123490 1.494174 0.097973 44 44 44
1.153080 1.533527 0.167862 40 40 40
1.156015 1.537430 0.236183 33 33 33
1.679829 2.234073 0.442710 51 51 51
1.711996 2.276853 0.553728 61 61 61
1.121089 1.490981 -0.097764 29 29 29
1.727447 2.297402 0.663606 64 64 64
1.076789 1.432065 -0.031275 34 34 34
1.676486 2.229625 0.747469 61 61 61
1.114044 1.481612 0.032357 43 43 43
1.133092 1.506945 0.098810 46 46 46
1.156672 1.538304 0.168385 47 47 47
1.167945 1.553296 0.238620 32 32 32
1.675081 2.227757 0.441458 51 51 51
1.217738 1.619519 -0.177275 1 1 1
1.707277 2.270576 0.552201 64 64 64
1.121089 1.490981 -0.097764 22 22 22
1.722763 2.291171 0.661806 60 60 60
1.076789 1.432065 -0.031275 36 36 36
1.671842 2.223449 0.745399 63 63 63
1.114912 1.460885 0.032078 39 39 39
1.145058 1.500386 0.098915 42 42 42
1.223231 1.602816 -0.391922 1 1 1
1.161606 1.522069 0.167513 43 43 43
1.185051 1.552789 0.239839 31 31 31
1.345226 1.762668 -0.272256 1 1 1
1.686186 2.209433 0.440207 52 52 52
1.232922 1.615515 -0.177798 3 3 3
1.711570 2.242694 0.548385 65 65 65
1.139000 1.492447 -0.098392 14 14 14
1.736749 2.275687 0.660906 59 59 59
1.091862 1.430682 -0.031414 42 42 42
1.687709 2.211429 0.745399 62 62 62
1.118552 1.465654 0.032182 41 41 41
1.177537 1.542943 -0.448103 1 1 1
1.155964 1.514675 0.099857 37 37 37
1.251816 1.640273 -0.401081 1 1 1
1.171276 1.534740 0.168908 46 46 46
1.260744 1.651971 -0.329138 1 1 1
1.185051 1.552789 0.239839 30 30 30
1.353656 1.773715 -0.273962 2 2 2
1.683789 2.206292 0.439581 52 52 52
1.240175 1.625019 -0.178844 3 3 3
1.704424 2.233330 0.546095 65 65 65
1.132941 1.484509 -0.097868 9 9 9
1.734385 2.272588 0.660006 58 58 58
1.101567 1.443399 -0.031694 45 45 45
1.692397 2.217572 0.747469 65 65 65
1.230927 1.590337 -0.538861 1 1 1
1.141966 1.475401 0.032566 43 43 43
1.258387 1.625815 -0.474647 4 4 4
1.163802 1.503613 0.099648 39 39 39
1.283381 1.658107 -0.407568 10 10 10
1.189013 1.536185 0.169954 44 44 44
1.294932 1.673031 -0.335083 2 2 2
1.199238 1.549396 0.240570 32 32 32
1.363268 1.761320 -0.273475 2 2 2
1.692722 2.186969 0.438017 57 57 57
1.251207 1.616539 -0.178844 4 4 4
1.717183 2.218572 0.545332 67 67 67
1.152799 1.489398 -0.098706 4 4 4
1.733114 2.239155 0.653708 58 58 58
1.117487 1.443774 -0.031868 45 45 45
1.709817 2.209056 0.748505 63 63 63
1.233292 1.593393 -0.539897 8 8 8
1.152982 1.489634 0.032880 47 47 47
1.256001 1.622733 -0.473747 12 12 12
1.169914 1.511510 0.100171 35 35 35
1.265356 1.634819 -0.401844 11 11 11
1.196330 1.545638 0.171000 48 48 48
1.290096 1.666783 -0.333831 4 4 4
1.206529 1.558815 0.242033 29 29 29
1.371773 1.772309 -0.275181 2 2 2
1.680631 2.171348 0.434888 57 57 57
1.254866 1.621266 -0.179367 4 4 4
1.709973 2.209257 0.543042 67 67 67
1.147910 1.483080 -0.098287 4 4 4
1.725958 2.229909 0.651008 56 56 56
1.119934 1.446937 -0.031938 51 51 51
1.714547 2.215167 0.750575 65 65 65
1.246772 1.587783 -0.540932 15 15 15
1.164588 1.483121 0.032915 43 43 43
1.270910 1.618523 -0.475097 13 13 13
1.182905 1.506447 0.100380 35 35 35
1.271888 1.619769 -0.400317 12 12 12
1.208322 1.538816 0.171174 51 51 51
1.300481 1.656182 -0.333518 7 7 7
1.228415 1.564406 0.244226 27 27 27
1.385339 1.764250 -0.275425 2 2 2
1.690869 2.153348 0.433636 61 61 61
1.257540 1.601497 -0.178146 3 3 3
1.722929 2.194177 0.542279 67 67 67
1.152068 1.467176 -0.097764 4 4 4
1.741483 2.217805 0.651008 56 56 56
1.132479 1.442229 -0.032008 47 47 47
1.722812 2.194027 0.747469 65 65 65
1.236034 1.574108 -0.536273 14 14 14
1.164588 1.483121 0.032915 39 39 39
1.266096 1.612392 -0.473297 14 14 14
1.192773 1.519014 0.101218 35 35 35
1.270676 1.618225 -0.399936 12 12 12
1.207091 1.537249 0.171000 52 52 52
1.291941 1.645307 -0.331328 9 9 9
1.233319 1.570651 0.245201 20 20 20
1.391469 1.772056 -0.276643 2 2 2
1.682329 2.142472 0.431446 61 61 61
1.264923 1.610899 -0.179192 3 3 3
1.708380 2.175648 0.537700 67 67 67
1.160702 1.478172 -0.098496 4 4 4
1.734262 2.208609 0.648309 57 57 57
1.139888 1.451665 -0.032217 44 44 44
1.720425 2.190988 0.746434 67 67 67
1.246993 1.565440 -0.536273 12 12 12
1.177406 1.478083 0.032985 39 39 39
1.262751 1.585223 -0.467898 14 14 14
1.208326 1.516899 0.101636 33 33 33
1.281942 1.609314 -0.399936 12 12 12
1.220276 1.531901 0.171348 49 49 49
1.300934 1.633157 -0.330702 11 11 11
1.458226 1.830617 0.287368 96 96 96
1.411227 1.771615 -0.278106 2 2 2
1.694784 2.127585 0.430821 58 58 58
1.277380 1.603587 -0.179367 4 4 4
1.711294 2.148312 0.533884 68 68 68
1.162283 1.459097 -0.097764 4 4 4
1.749639 2.196448 0.648309 58 58 58
1.162454 1.459313 -0.032566 43 43 43
1.739290 2.183457 0.747987 71 71 71
1.243382 1.560907 -0.534720 12 12 12
1.184881 1.487467 0.033194 43 43 43
1.263965 1.586747 -0.468348 15 15 15
1.208326 1.516899 0.101636 33 33 33
1.281942 1.609314 -0.399936 12 12 12
1.230207 1.544368 0.172743 48 48 48
1.298473 1.630067 -0.330077 14 14 14
1.658593 2.082152 0.326854 72 72 72
1.400095 1.757641 -0.275912 2 2 2
1.687399 2.118314 0.428943 57 57 57
1.276138 1.602029 -0.179192 4 4 4
1.708848 2.145241 0.533120 68 68 68
1.164771 1.462222 -0.097973 4 4 4
1.732640 2.175109 0.642010 60 60 60
1.167438 1.465570 -0.032706 42 42 42
1.744105 2.189501 0.750058 87 87 87
1.251820 1.549184 -0.533685 12 12 12
1.202778 1.488491 0.033404 39 39 39
1.268888 1.570306 -0.466099 14 14 14
1.222652 1.513087 0.101950 31 31 31
1.279573 1.583528 -0.395738 13 13 13
1.244716 1.540391 0.173266 41 41 41
1.306096 1.616353 -0.329138 17 17 17
1.679327 2.078243 0.328072 80 80 80
1.413579 1.749368 -0.276156 2 2 2
1.689731 2.091118 0.425815 57 57 57
1.287292 1.593081 -0.179192 4 4 4
1.721315 2.130204 0.532357 68 68 68
1.176206 1.455608 -0.098078 4 4 4
1.740434 2.153865 0.639311 61 61 61
1.177641 1.457384 -0.032706 43 43 43
1.758134 2.175769 0.749540 95 95 95
1.240893 1.535660 -0.529026 11 11 11
1.214089 1.502490 0.033718 41 41 41
1.266438 1.567274 -0.465199 14 14 14
1.231439 1.523961 0.102683 29 29 29
1.277105 1.580474 -0.394975 13 13 13
1.243464 1.538842 0.173091 33 33 33
1.309821 1.620962 -0.330077 24 24 24
1.674337 2.072067 0.327097 80 80 80
1.417322 1.754000 -0.276887 2 2 2
1.687248 2.088045 0.425189 57 57 57
1.279778 1.583783 -0.178146 4 4 4
1.716379 2.124096 0.530831 68 68 68
1.188759 1.471143 -0.099124 4 4 4
1.734310 2.146286 0.637061 67 67 67
1.180155 1.460494 -0.032776 40 40 40
1.753277 2.169759 0.747469 90 90 90
1.245460 1.519489 -0.526438 8 8 8
1.219478 1.487791 0.033578 41 41 41
1.277349 1.558395 -0.465199 15 15 15
1.249645 1.524595 0.103311 26 26 26
1.290596 1.574557 -0.395738 15 15 15
1.260491 1.537828 0.173963 31 31 31
1.307331 1.594973 -0.326635 23 23 23
1.681211 2.051116 0.325635 80 80 80
1.432050 1.747133 -0.277375 2 2 2
1.696775 2.070104 0.423937 57 57 57
1.295856 1.580973 -0.178844 3 3 3
1.716232 2.093841 0.526251 67 67 67
1.193936 1.456629 -0.098706 4 4 4
1.757899 2.144676 0.640211 66 66 66
1.189055 1.450673 -0.032741 34 34 34
1.773281 2.163442 0.749540 85 85 85
1.239337 1.512019 -0.523850 7 7 7
1.227084 1.497070 0.033788 41 41 41
1.266231 1.544830 -0.461150 17 17 17
1.258508 1.535408 0.104044 30 30 30
1.288107 1.571520 -0.394975 17 17 17
1.270596 1.550155 0.175357 26 26 26
1.297313 1.582751 -0.324132 20 20 20
1.673661 2.041904 0.324172 75 75 75
1.429533 1.744062 -0.276887 3 3 3
1.691766 2.063993 0.422686 61 61 61
1.303434 1.590219 -0.179889 4 4 4
1.711254 2.087768 0.524725 70 70 70
1.188872 1.450451 -0.098287 4 4 4
1.744310 2.128098 0.635262 64 64 64
1.191590 1.453766 -0.032811 36 36 36
1.773281 2.163442 0.749540 77 77 77
1.236277 1.486989 -0.518156 4 4 4
1.242619 1.494618 0.033927 35 35 35
1.275739 1.534454 -0.460700 15 15 15
1.269196 1.526584 0.104044 27 27 27
1.300302 1.563999 -0.395356 25 25 25
1.289029 1.550439 0.176403 26 26 26
1.336114 1.607073 -0.331015 30 30 30
1.678992 2.019485 0.322466 69 69 69
1.439136 1.730987 -0.276400 2 2 2
1.706134 2.052132 0.422686 60 60 60
1.317051 1.584145 -0.180238 4 4 4
1.720767 2.069732 0.523198 68 68 68
1.198969 1.442115 -0.098287 4 4 4
1.746666 2.100884 0.630763 67 67 67
1.186369 1.426960 -0.032392 34 34 34
1.783401 2.145068 0.747469 80 80 80
1.180700 1.420142 -0.494862 0 0 0
1.249011 1.502306 0.034102 34 34 34
1.281968 1.541947 -0.462949 33 33 33
1.273027 1.531192 0.104358 29 29 29
1.295282 1.557960 -0.393830 28 28 28
1.299219 1.562696 0.177798 26 26 26
1.342428 1.614668 -0.332580 29 29 29
1.677722 2.017958 0.322223 72 72 72
1.441674 1.734040 -0.276887 2 2 2
1.693506 2.036942 0.419557 61 61 61
1.323420 1.591805 -0.181110 4 4 4
1.720767 2.069732 0.523198 68 68 68
1.204076 1.448259 -0.098706 4 4 4
1.730470 2.081403 0.624914 66 66 66
1.160801 1.396207 -0.031694 34 34 34
1.783401 2.145068 0.747469 73 73 73
1.123335 1.332115 -0.466910 0 0 0
1.272360 1.508837 0.034451 33 33 33
1.291445 1.531470 -0.462499 21 21 21
1.290123 1.529901 0.104881 27 27 27
1.306127 1.548879 -0.393830 23 23 23
1.312666 1.556634 0.178146 26 26 26
1.360035 1.612807 -0.334144 31 31 31
1.682812 1.995574 0.320516 65 65 65
1.451185 1.720898 -0.276400 2 2 2
1.700044 2.016009 0.417680 58 58 58
1.320372 1.565772 -0.179192 4 4 4
1.730112 2.051665 0.521672 70 70 70
1.224458 1.452032 -0.099543 4 4 4
1.748728 2.073741 0.626264 64 64 64
1.152472 1.366667 -0.031205 37 37 37
1.785879 2.117797 0.742293 77 77 77
1.097182 1.301101 -0.456039 0 0 0
1.268493 1.504251 0.034346 32 32 32
1.296471 1.537429 -0.464299 14 14 14
1.300423 1.542116 0.105719 28 28 28
1.302330 1.544377 -0.392685 16 16 16
1.313950 1.558157 0.178321 25 25 25
1.353668 1.605257 -0.332580 29 29 29
1.681532 1.994056 0.320273 67 67 67
1.458863 1.730003 -0.277862 2 2 2
1.697497 2.012989 0.417054 60 60 60
1.321657 1.567296 -0.179367 4 4 4
1.717455 2.036656 0.517856 68 68 68
1.221883 1.448978 -0.099334 4 4 4
1.742446 2.066292 0.624014 69 69 69
1.152472 1.366667 -0.031205 42 42 42
1.778406 2.108936 0.739187 73 73 73
1.107494 1.294878 -0.456557 0 0 0
1.282863 1.499918 0.034451 29 29 29
1.294506 1.513531 -0.459800 14 14 14
1.320245 1.543625 0.106451 26 26 26
1.315632 1.538231 -0.393448 16 16 16
1.333861 1.559545 0.179541 26 26 26
1.363558 1.594266 -0.332267 23 23 23
1.686380 1.971708 0.318566 69 69 69
1.460583 1.707708 -0.275912 2 2 2
1.714077 2.004092 0.417680 57 57 57
1.336451 1.562573 -0.179889 4 4 4
1.723975 2.015665 0.515566 68 68 68
1.225478 1.432824 -0.098810 4 4 4
1.751763 2.048153 0.622215 72 72 72
1.159385 1.355549 -0.031135 40 40 40
1.785552 2.087660 0.736081 73 73 73
1.096193 1.281665 -0.451898 0 0 0
1.291961 1.510555 0.034695 28 28 28
1.290706 1.509088 -0.458450 13 13 13
1.329332 1.554250 0.107184 30 30 30
1.313080 1.535247 -0.392685 17 17 17
1.346811 1.574686 0.181284 27 27 27
1.369978 1.601772 -0.333831 17 17 17
1.676058 1.959640 0.316617 69 69 69
1.450261 1.695639 -0.273962 2 2 2
1.706373 1.995084 0.415803 60 60 60
1.342926 1.570144 -0.180761 4 4 4
1.718871 2.009697 0.514039 65 65 65
1.229373 1.437377 -0.099124 4 4 4
1.741630 2.036306 0.618615 64 64 64
1.159385 1.355549 -0.031135 40 40 40
1.783041 2.084724 0.735046 72 72 72
1.107646 1.276899 -0.452933 0 0 0
1.320820 1.522647 0.035184 38 38 38
1.302487 1.501512 -0.458900 13 13 13
1.348003 1.553984 0.107812 36 36 36
1.318620 1.520111 -0.391158 17 17 17
1.368216 1.577285 0.182678 26 26 26
1.363005 1.571278 -0.329451 11 11 11
1.693600 1.952390 0.317348 72 72 72
1.469868 1.694470 -0.275425 2 2 2
1.712494 1.974170 0.413926 61 61 61
1.365605 1.574275 -0.182330 4 4 4
1.732860 1.997648 0.514039 67 67 67
1.241995 1.431777 -0.099334 4 4 4
1.748141 2.015265 0.615916 60 60 60
1.160959 1.338358 -0.030926 40 40 40
1.787424 2.060550 0.730905 70 70 70
1.094987 1.262306 -0.447757 0 0 0
1.323440 1.525668 0.035254 32 32 32
1.297379 1.495624 -0.457101 11 11 11
1.349312 1.555492 0.107917 33 33 33
1.310901 1.511213 -0.388869 17 17 17
1.368216 1.577285 0.182678 26 26 26
1.350061 1.556356 -0.326322 12 12 12
1.685796 1.943392 0.315885 67 67 67
1.462063 1.685473 -0.273962 2 2 2
1.703433 1.963725 0.411736 65 65 65
1.357772 1.565245 -0.181284 4 4 4
1.730287 1.994682 0.513276 65 65 65
1.249847 1.440829 -0.099962 4 4 4
1.745588 2.012321 0.615016 61 61 61
1.154407 1.330805 -0.030751 43 43 43
1.772234 2.043039 0.724693 68 68 68
1.089520 1.238866 -0.442063 0 0 0
1.331153 1.513621 0.035184 32 32 32
1.307529 1.486758 -0.457101 11 11 11
1.375696 1.564269 0.109173 35 35 35
1.321157 1.502255 -0.388869 15 15 15
1.386815 1.576913 0.183724 27 27 27
1.348883 1.533781 -0.323506 16 16 16
1.695052 1.927401 0.315154 69 69 69
1.443350 1.641197 -0.268356 2 2 2
1.714151 1.949118 0.411110 65 65 65
1.360500 1.546990 -0.180238 4 4 4
1.730859 1.968116 0.509460 67 67 67
1.254350 1.426290 -0.099543 4 4 4
1.756671 1.997466 0.614116 60 60 60
1.163439 1.322917 -0.030751 43 43 43
1.778444 2.022224 0.721587 68 68 68
1.090796 1.240317 -0.442581 0 0 0
1.337756 1.521129 0.035359 33 33 33
1.289512 1.466272 -0.450802 11 11 11
1.382291 1.571768 0.109696 39 39 39
1.327640 1.509626 -0.390777 18 18 18
1.394710 1.585889 0.184770 26 26 26
1.328010 1.510047 -0.318501 14 14 14
1.683253 1.913985 0.312960 75 75 75
1.360761 1.547287 -0.253001 2 2 2
1.712846 1.947634 0.410797 63 63 63
1.369710 1.557463 -0.181458 4 4 4
1.720486 1.956322 0.506407 70 70 70
1.255669 1.427789 -0.099648 4 4 4
1.752810 1.993076 0.612767 64 64 64
1.162118 1.321415 -0.030716 37 37 37
1.773341 2.016422 0.719517 67 67 67
1.102000 1.235555 -0.443616 0 0 0
1.361654 1.526676 0.035708 30 30 30
1.294529 1.451416 -0.449002 13 13 13
1.399877 1.569532 0.110220 40 40 40
1.323772 1.484204 -0.386579 15 15 15
1.426966 1.599904 0.187559 27 27 27
1.335890 1.497791 -0.317875 15 15 15
1.688646 1.893298 0.311498 75 75 75
1.272431 1.426640 -0.234720 4 4 4
1.722457 1.931206 0.409858 65 65 65
1.385855 1.553810 -0.182156 4 4 4
1.731488 1.941333 0.505644 68 68 68
1.265606 1.418988 -0.099648 4 4 4
1.758898 1.972064 0.610067 61 61 61
1.171315 1.313270 -0.030716 33 33 33
1.791233 2.008318 0.721070 76 76 76
1.099429 1.232672 -0.442581 0 0 0
1.366978 1.532646 0.035847 33 33 33
1.304905 1.463051 -0.452602 10 10 10
1.401207 1.571023 0.110324 46 46 46
1.318545 1.478343 -0.385053 15 15 15
1.544996 1.732238 0.203073 65 65 65
1.338520 1.500739 -0.318501 15 15 15
1.688646 1.893298 0.311498 75 75 75
1.268467 1.422196 -0.233989 6 6 6
1.709308 1.916464 0.406730 65 65 65
1.380550 1.547863 -0.181458 4 4 4
1.730182 1.939867 0.505262 73 73 73
1.269594 1.423460 -0.099962 4 4 4
1.749819 1.961884 0.606918 58 58 58
1.165991 1.307301 -0.030577 20 20 20
1.782232 1.998225 0.717446 76 76 76
1.105416 1.222101 -0.441545 0 0 0
1.391058 1.537895 0.036196 34 34 34
1.309859 1.448124 -0.450802 11 11 11
1.424198 1.574533 0.111266 48 48 48
1.326199 1.466190 -0.384289 15 15 15
1.653281 1.827798 0.215623 79 79 79
1.341014 1.482568 -0.316623 15 15 15
1.699160 1.878519 0.311011 72 72 72
1.278365 1.413306 -0.233989 6 6 6
1.714695 1.895695 0.404852 70 70 70
1.388649 1.535232 -0.181110 4 4 4
1.738414 1.921917 0.503736 73 73 73
1.282180 1.417524 -0.100171 4 4 4
1.760858 1.946730 0.606018 60 60 60
1.176430 1.300612 -0.030612 12 12 12
1.785771 1.974273 0.713305 72 72 72
1.102824 1.219235 -0.440510 0 0 0
1.387034 1.533446 0.036092 32 32 32
1.309859 1.448124 -0.450802 11 11 11
1.422858 1.573052 0.111162 46 46 46
1.324882 1.464734 -0.383908 18 18 18
1.662637 1.838141 0.216843 76 76 76
1.342339 1.484033 -0.316936 11 11 11
1.703154 1.882935 0.311742 81 81 81
1.271706 1.405945 -0.232770 4 4 4
1.712045 1.892765 0.404227 72 72 72
1.384640 1.530799 -0.180587 4 4 4
1.729195 1.911725 0.501064 82 82 82
1.290219 1.426412 -0.100799 4 4 4
1.758243 1.943839 0.605118 61 61 61
1.177772 1.302095 -0.030646 7 7 7
1.777996 1.965677 0.710199 70 70 70
1.110003 1.210083 -0.439992 0 0 0
1.403113 1.529620 0.036231 32 32 32
1.304129 1.421712 -0.445403 12 12 12
1.441906 1.571911 0.111790 39 39 39
1.331094 1.451109 -0.382763 17 17 17
1.672735 1.823552 0.216495 76 76 76
1.335308 1.455701 -0.312869 15 15 15
1.690763 1.843205 0.307111 76 76 76
1.285516 1.401421 -0.233502 4 4 4
1.725217 1.880766 0.404227 67 67 67
1.392599 1.518159 -0.180238 4 4 4
1.734537 1.890926 0.498775 78 78 78
1.292045 1.408539 -0.100171 4 4 4
1.766502 1.925773 0.603319 59 59 59
1.193592 1.301209 -0.030821 6 6 6
1.787757 1.948945 0.708647 71 71 71
1.113920 1.214354 -0.441545 0 0 0
1.415278 1.542883 0.036545 29 29 29
1.296225 1.413095 -0.442704 11 11 11
1.436506 1.566024 0.111371 32 32 32
1.329767 1.449662 -0.382381 13 13 13
1.671388 1.822084 0.216321 78 78 78
1.340649 1.461524 -0.314120 13 13 13
1.682711 1.834428 0.305648 82 82 82
1.277465 1.392644 -0.232039 4 4 4
1.714535 1.869121 0.401724 67 67 67
1.399333 1.525500 -0.181110 4 4 4
1.729228 1.885139 0.497248 79 79 79
1.289345 1.405595 -0.099962 4 4 4
1.753329 1.911412 0.598820 61 61 61
1.201703 1.310050 -0.031030 6 6 6
1.785146 1.946098 0.707611 73 73 73
1.117108 1.200890 -0.439475 0 0 0
1.432825 1.540286 0.036720 31 31 31
1.308713 1.406865 -0.443603 10 10 10
1.452845 1.561807 0.111790 28 28 28
1.330495 1.430281 -0.379710 17 17 17
1.682711 1.808912 0.216146 73 73 73
1.348128 1.449237 -0.313495 13 13 13
1.692773 1.819729 0.305161 82 82 82
1.293917 1.390959 -0.233258 4 4 4
1.722160 1.851320 0.400472 72 72 72
1.405878 1.511317 -0.180587 4 4 4
1.739673 1.870146 0.496485 78 78 78
1.307288 1.405334 -0.100590 4 4 4
1.757339 1.889137 0.595670 64 64 64
1.205371 1.295772 -0.030891 6 6 6
1.797373 1.932173 0.707094 70 70 70
1.111845 1.195232 -0.437404 0 0 0
1.436911 1.544678 0.036825 26 26 26
1.312695 1.411146 -0.444953 13 13 13
1.465088 1.574968 0.112732 26 26 26
1.326484 1.425968 -0.378565 12 12 12
1.666427 1.791407 0.214055 73 73 73
1.348128 1.449237 -0.313495 13 13 13
1.695477 1.822636 0.305648 78 78 78
