0.966374 1.237348 0.137357 1 1 1
1.001895 1.282828 -0.257804 22 22 22
0.954282 1.221865 0.190360 58 58 58
1.010488 1.293831 -0.201572 25 25 25
0.891249 1.141157 0.229333 90 90 90
1.035051 1.325281 -0.147119 16 16 16
0.918407 1.175930 0.290030 60 60 60
1.057250 1.353706 -0.090018 37 37 37
0.927211 1.187202 0.347774 62 62 62
1.144700 1.465677 -0.032461 5 5 5
0.957226 1.225635 0.416699 54 54 54
1.065569 1.344414 -0.459663 8 8 8
0.859727 1.084706 -0.269041 2 2 2
0.964066 1.216348 0.135789 1 1 1
1.013503 1.278722 -0.258430 23 23 23
0.966700 1.219672 0.191091 59 59 59
1.024653 1.292790 -0.202547 27 27 27
0.901846 1.137846 0.229959 90 90 90
1.034607 1.305349 -0.145724 21 21 21
0.930456 1.173944 0.291175 55 55 55
1.078075 1.360193 -0.090960 18 18 18
0.946576 1.194282 0.351823 64 64 64
1.048338 1.322673 -0.029460 2 2 2
0.963572 1.215726 0.415663 52 52 52
1.073969 1.355012 -0.463286 9 9 9
0.857288 1.081628 -0.268277 2 2 2
0.993767 1.253822 0.139972 1 1 1
1.006141 1.269434 -0.256553 24 24 24
0.969166 1.222783 0.191579 61 61 61
1.029585 1.299013 -0.203522 27 27 27
0.903073 1.139394 0.230272 78 78 78
1.037082 1.308472 -0.146073 21 21 21
0.924359 1.166251 0.289266 56 56 56
1.092962 1.378975 -0.092216 12 12 12
0.947787 1.195809 0.352273 61 61 61
0.948969 1.197301 -0.026667 1 1 1
0.961172 1.212698 0.414628 51 51 51
1.095270 1.362728 -0.468462 7 7 7
0.999854 1.244012 -0.368470 0 0 0
0.872010 1.084950 -0.270567 2 2 2
1.002279 1.247029 0.139972 1 1 1
1.009808 1.256397 -0.255301 24 24 24
0.972492 1.209969 0.190604 63 63 63
1.033429 1.285785 -0.202547 27 27 27
0.924420 1.150157 0.233713 100 100 100
1.050957 1.307594 -0.146770 19 19 19
0.929816 1.156872 0.288503 62 62 62
1.086058 1.351266 -0.090855 12 12 12
0.953463 1.186292 0.351374 62 62 62
0.971825 1.209139 0.415663 47 47 47
1.095270 1.362728 -0.468462 7 7 7
1.021829 1.271353 -0.376568 0 0 0
0.988463 1.229839 0.082691 2 2 2
0.864631 1.075768 -0.268277 2 2 2
0.973571 1.211311 0.135963 1 1 1
1.014758 1.262556 -0.256553 23 23 23
0.974980 1.213063 0.191091 65 65 65
1.025967 1.276502 -0.201084 27 27 27
0.915757 1.139380 0.231523 75 75 75
1.055950 1.313806 -0.147468 20 20 20
0.929816 1.156872 0.288503 60 60 60
1.086058 1.351266 -0.090855 10 10 10
0.949800 1.181736 0.350024 64 64 64
0.974245 1.212150 0.416699 17 17 17
1.105977 1.356546 -0.468980 7 7 7
1.025754 1.258147 -0.374768 0 0 0
0.997024 1.222908 0.082691 2 2 2
0.885766 1.086444 -0.272475 2 2 2
0.973191 1.193675 0.134743 6 6 6
1.028540 1.261565 -0.257804 23 23 23
0.985933 1.209304 0.191579 63 63 63
1.034854 1.269308 -0.201084 27 27 27
0.927434 1.137552 0.232462 70 70 70
1.072650 1.315668 -0.148513 21 21 21
0.947795 1.162525 0.291556 56 56 56
1.100513 1.349843 -0.091274 6 6 6
0.951870 1.167524 0.347774 61 61 61
1.264672 1.551193 0.536273 18 18 18
1.098653 1.347562 -0.465874 4 4 4
1.045456 1.282313 -0.381967 0 0 0
0.874601 1.072749 -0.269041 2 2 2
0.970673 1.190587 0.134394 6 6 6
1.026044 1.258503 -0.257178 23 23 23
0.990951 1.215459 0.192554 65 65 65
1.039871 1.275462 -0.202059 27 27 27
0.924938 1.134490 0.231836 63 63 63
1.067614 1.309491 -0.147816 22 22 22
0.945313 1.159482 0.290793 60 60 60
1.081582 1.326623 -0.089704 1 1 1
0.955564 1.172055 0.349124 57 57 57
1.240257 1.521248 0.525920 57 57 57
1.109265 1.341348 -0.466392 4 4 4
1.054383 1.274983 -0.381967 0 0 0
0.887073 1.072669 -0.270567 2 2 2
0.985310 1.191458 0.135266 1 1 1
1.037323 1.254353 -0.257804 22 22 22
0.999412 1.208511 0.192554 63 63 63
1.048750 1.268172 -0.202059 27 27 27
0.934094 1.129527 0.232149 60 60 60
1.071651 1.295864 -0.147119 21 21 21
0.949631 1.148315 0.289648 55 55 55
0.971175 1.174366 0.351823 57 57 57
1.244691 1.505108 0.523332 85 85 85
1.104340 1.335393 -0.464321 3 3 3
0.973630 1.177335 0.026667 1 1 1
1.081705 1.308022 -0.391865 0 0 0
0.883320 1.068130 -0.269422 1 1 1
1.017053 1.229843 0.139623 1 1 1
1.029769 1.245220 -0.255927 23 23 23
0.996882 1.205451 0.192066 65 65 65
1.053810 1.274291 -0.203034 27 27 27
0.942906 1.140183 0.234339 63 63 63
1.076730 1.302006 -0.147816 18 18 18
0.945878 1.143777 0.288503 56 56 56
0.967449 1.169861 0.350474 49 49 49
1.250847 1.512552 0.525920 100 100 100
1.123568 1.339491 -0.468462 3 3 3
0.981826 1.170509 0.026667 1 1 1
1.075782 1.282521 -0.386466 0 0 0
0.900849 1.073970 -0.272475 1 1 1
1.025614 1.222712 0.139623 1 1 1
1.035899 1.234974 -0.255301 22 22 22
1.000170 1.192379 0.191091 65 65 65
1.058854 1.262340 -0.202303 20 20 20
0.952113 1.135086 0.234652 58 58 58
1.090915 1.300563 -0.148513 20 20 20
0.953840 1.137145 0.288503 56 56 56
0.973088 1.160092 0.349574 40 40 40
1.276274 1.521544 0.532132 53 53 53
1.119844 1.335051 -0.466910 2 2 2
1.090810 1.300438 -0.391865 0 0 0
0.902111 1.075475 -0.272857 1 1 1
1.037138 1.236451 0.141192 1 1 1
1.043515 1.244054 -0.257178 23 23 23
1.005273 1.198463 0.192066 65 65 65
1.065232 1.269944 -0.203522 24 24 24
0.952113 1.135086 0.234652 57 57 57
1.102439 1.314301 -0.150082 4 4 4
0.960148 1.144666 0.290411 54 54 54
1.016921 1.212349 0.365321 73 73 73
1.272550 1.517103 0.530579 51 51 51
1.121626 1.318372 -0.463804 2 2 2
1.117541 1.313571 -0.398163 1 1 1
0.933768 1.097562 -0.280108 1 1 1
1.050908 1.235250 0.141890 8 8 8
1.057295 1.242757 -0.258430 22 22 22
1.021333 1.200487 0.193529 63 63 63
1.080504 1.270037 -0.204740 18 18 18
0.966414 1.135934 0.236216 51 51 51
1.059946 1.245873 -0.143110 1 1 1
0.968116 1.137935 0.290411 54 54 54
0.993944 1.168293 -0.080388 2 2 2
1.463537 1.720258 0.521437 79 79 79
1.253067 1.472869 0.518156 55 55 55
1.111611 1.306601 -0.459663 2 2 2
1.123855 1.320992 -0.400413 1 1 1
1.136306 1.335627 0.091902 1 1 1
0.940129 1.105038 -0.282016 1 1 1
1.053491 1.238285 0.142238 11 11 11
1.045775 1.229216 -0.255614 21 21 21
1.018761 1.197463 0.193041 57 57 57
1.083076 1.273061 -0.205228 15 15 15
0.971534 1.141952 0.237468 47 47 47
0.960536 1.129025 -0.129688 1 1 1
0.966844 1.136440 0.290030 58 58 58
1.458486 1.714321 0.519637 70 70 70
0.964058 1.133165 -0.025969 1 1 1
1.251815 1.471398 0.517638 72 72 72
1.128278 1.307584 -0.462768 2 2 2
1.127957 1.307212 -0.398613 2 2 2
1.098630 1.273224 0.088134 1 1 1
0.978602 1.134121 -0.291175 1 1 1
1.069919 1.239951 0.143284 9 9 9
1.058202 1.226372 -0.256553 22 22 22
1.020611 1.182807 0.191822 51 51 51
1.093234 1.266971 -0.205472 16 16 16
0.984644 1.141124 0.238719 47 47 47
0.968394 1.122291 -0.129688 1 1 1
0.972189 1.126689 0.289266 56 56 56
1.472965 1.707048 0.520537 70 70 70
0.979783 1.135491 -0.026179 1 1 1
1.258270 1.458235 0.516085 85 85 85
1.128278 1.307584 -0.462768 2 2 2
1.127957 1.307212 -0.398613 2 2 2
1.080363 1.252054 0.086668 1 1 1
0.981167 1.137094 -0.291938 1 1 1
1.081634 1.253527 0.144853 9 9 9
1.068526 1.238337 -0.259055 24 24 24
1.018018 1.179801 0.191335 51 51 51
1.085453 1.257954 -0.204009 12 12 12
0.988516 1.145611 0.239658 50 50 50
0.968394 1.122291 -0.129688 1 1 1
0.976037 1.131149 0.290411 54 54 54
1.469145 1.702622 0.519187 75 75 75
0.979783 1.135491 -0.026179 1 1 1
1.259532 1.459697 0.516603 90 90 90
1.145013 1.308398 -0.465874 2 2 2
1.090406 1.246000 0.028901 1 1 1
1.156306 1.321303 -0.405362 2 2 2
1.144321 1.307607 0.091065 3 3 3
1.002011 1.144991 -0.295754 1 1 1
1.092983 1.248944 0.145201 11 11 11
1.079747 1.233820 -0.259681 21 21 21
1.034073 1.181628 0.192797 50 50 50
0.999091 1.141655 0.240283 50 50 50
0.976206 1.115503 -0.129688 1 1 1
1.009768 1.153855 0.298044 43 43 43
1.474579 1.684991 0.516938 49 49 49
0.953447 1.089497 -0.025271 1 1 1
1.267148 1.447961 0.515568 67 67 67
1.137380 1.299676 -0.462768 2 2 2
1.085138 1.239980 0.028762 1 1 1
1.153739 1.318370 -0.404462 3 3 3
1.162735 1.328649 0.092530 9 9 9
0.983910 1.124307 -0.290411 1 1 1
1.090359 1.245945 0.144853 11 11 11
1.081048 1.235306 -0.259994 18 18 18
1.036688 1.184616 0.193285 50 50 50
0.972630 1.111418 -0.181342 1 1 1
0.997791 1.140168 0.239970 45 45 45
0.976206 1.115503 -0.129688 1 1 1
1.246372 1.424221 0.367880 100 100 100
1.010159 1.154302 -0.080388 2 2 2
1.311593 1.498748 0.459800 25 25 25
1.255698 1.434877 0.510909 85 85 85
1.155402 1.301818 -0.466392 3 3 3
1.069876 1.205454 0.028133 1 1 1
1.166796 1.314656 -0.405812 5 5 5
1.175960 1.324981 0.092844 13 13 13
1.007373 1.135031 -0.294991 1 1 1
1.101675 1.241283 0.145201 11 11 11
1.085712 1.223297 -0.259055 11 11 11
1.039662 1.171411 0.192310 48 48 48
0.980366 1.104601 -0.181342 1 1 1
1.018839 1.147949 0.243099 47 47 47
0.983969 1.108661 -0.129688 1 1 1
1.256285 1.415485 0.367880 85 85 85
0.986374 1.111371 -0.077876 2 2 2
1.271575 1.432713 0.442254 49 49 49
1.263119 1.423186 0.509874 94 94 94
1.154119 1.300373 -0.465874 2 2 2
1.080495 1.217418 0.028413 1 1 1
1.165502 1.313198 -0.405362 7 7 7
1.185240 1.335437 0.093577 10 10 10
1.002161 1.129158 -0.293464 1 1 1
1.104320 1.244263 0.145550 8 8 8
1.077845 1.214432 -0.257178 9 9 9
1.037027 1.168442 0.191822 50 50 50
0.980366 1.104601 -0.181342 1 1 1
1.109315 1.249890 0.264687 65 65 65
0.983969 1.108661 -0.129688 1 1 1
1.253678 1.412548 0.367117 100 100 100
1.007587 1.135271 -0.079551 2 2 2
1.259933 1.419595 0.438205 54 54 54
1.270814 1.431855 0.512979 78 78 78
1.162944 1.292487 -0.465874 2 2 2
1.116845 1.241253 0.029146 1 1 1
1.174414 1.305235 -0.405362 9 9 9
1.188959 1.321400 0.093158 11 11 11
1.025581 1.139823 -0.298044 1 1 1
1.120760 1.245604 0.146596 10 10 10
1.042484 1.158609 -0.246854 2 2 2
1.044956 1.161356 0.191822 49 49 49
0.987862 1.097902 -0.181342 1 1 1
1.230105 1.367129 0.291281 69 69 69
0.991493 1.101938 -0.129688 1 1 1
1.269830 1.411279 0.369025 100 100 100
1.253925 1.393602 0.432806 55 55 55
1.272777 1.414555 0.509874 75 75 75
1.161652 1.291051 -0.465357 3 3 3
1.143595 1.270983 0.029844 7 7 7
1.171807 1.302337 -0.404462 8 8 8
1.188959 1.321400 0.093158 11 11 11
1.028208 1.142742 -0.298807 1 1 1
1.126091 1.251529 0.147293 8 8 8
0.965850 1.073439 -0.228707 1 1 1
1.050267 1.167259 0.192797 49 49 49
0.987862 1.097902 -0.181342 1 1 1
1.215571 1.350976 0.287839 95 95 95
0.991493 1.101938 -0.129688 1 1 1
1.271143 1.412739 0.369406 85 85 85
1.248711 1.387808 0.431006 68 68 68
1.102132 1.224901 -0.028762 1 1 1
1.277946 1.420300 0.511944 82 82 82
1.161299 1.273123 -0.461733 2 2 2
1.146830 1.257260 0.029704 13 13 13
1.180645 1.294331 -0.404462 7 7 7
1.211386 1.328032 0.094205 10 10 10
1.004208 1.100906 -0.289648 1 1 1
1.129213 1.237947 0.146596 10 10 10
0.957160 1.049326 -0.224953 1 1 1
1.064877 1.167416 0.194016 39 39 39
0.944476 1.035421 -0.172080 1 1 1
1.222076 1.339752 0.287214 91 91 91
0.998971 1.095163 -0.129688 1 1 1
1.282053 1.405504 0.369788 79 79 79
1.263382 1.385035 0.432806 83 83 83
1.061929 1.164185 -0.027505 1 1 1
1.284980 1.408714 0.510909 85 85 85
1.144375 1.254569 -0.455004 2 2 2
1.141439 1.251351 0.029564 21 21 21
1.176705 1.290012 -0.403112 4 4 4
1.215424 1.332459 0.094519 10 10 10
1.017439 1.115410 -0.293464 1 1 1
1.127870 1.236475 0.146422 8 8 8
0.957160 1.049326 -0.224953 1 1 1
1.062201 1.164483 0.193529 32 32 32
0.995312 1.091152 -0.181342 1 1 1
1.222076 1.339752 0.287214 58 58 58
0.985544 1.080443 -0.127945 1 1 1
1.274114 1.396801 0.367498 63 63 63
1.258128 1.379276 0.431006 85 85 85
1.126615 1.235099 -0.029180 1 1 1
1.286282 1.410141 0.511426 90 90 90
1.040287 1.124588 -0.410487 1 1 1
1.144716 1.237480 0.029425 19 19 19
1.181712 1.277474 -0.401763 2 2 2
1.230121 1.329806 0.094937 10 10 10
1.038533 1.122692 -0.297280 1 1 1
1.154063 1.247584 0.148688 8 8 8
0.964462 1.042619 -0.224953 1 1 1
1.064913 1.151210 0.192554 21 21 21
1.002905 1.084177 -0.181342 1 1 1
1.222009 1.321037 0.285024 62 62 62
1.014710 1.096938 -0.130734 1 1 1
1.263837 1.366254 0.361774 75 75 75
1.271697 1.374751 0.432356 62 62 62
1.143358 1.236012 -0.029390 1 1 1
1.305278 1.411054 0.515050 86 86 86
1.023233 1.106153 -0.403758 4 4 4
1.158295 1.252159 0.029774 20 20 20
1.180389 1.276043 -0.401313 2 2 2
1.226053 1.325408 0.094623 10 10 10
1.158122 1.251972 0.149211 10 10 10
0.964462 1.042619 -0.224953 1 1 1
1.068957 1.155581 0.193285 13 13 13
1.002905 1.084177 -0.181342 1 1 1
1.219327 1.318137 0.284398 69 69 69
1.006592 1.088163 -0.129688 1 1 1
1.269170 1.372019 0.363300 100 100 100
1.090427 1.178792 -0.084156 1 1 1
1.287576 1.391917 0.437755 100 100 100
1.194958 1.291794 -0.030716 4 4 4
1.306590 1.412472 0.515568 90 90 90
1.034896 1.103209 -0.405311 5 5 5
1.169745 1.246959 0.029844 21 21 21
1.203934 1.283406 -0.406262 3 3 3
1.240742 1.322643 0.095042 10 10 10
0.952322 1.015185 -0.270567 1 1 1
1.176376 1.254028 0.150431 10 10 10
0.939282 1.001283 -0.217444 1 1 1
1.089221 1.161121 0.195478 8 8 8
0.975138 1.039507 -0.175004 1 1 1
1.216336 1.296626 0.281582 73 73 73
1.014164 1.081109 -0.129688 1 1 1
1.281404 1.365989 0.364064 85 85 85
1.117761 1.191544 -0.085622 1 1 1
1.281263 1.365839 0.432356 88 88 88
1.210788 1.290712 -0.030891 13 13 13
1.325671 1.413178 0.519191 76 76 76
1.026965 1.094755 -0.402205 6 6 6
1.162904 1.239667 0.029669 21 21 21
1.211934 1.291933 -0.408961 3 3 3
1.246207 1.328469 0.095461 10 10 10
0.960381 1.023776 -0.272857 1 1 1
1.168197 1.245310 0.149385 10 10 10
0.955499 1.018572 -0.221198 1 1 1
1.096012 1.168360 0.196697 9 9 9
0.988720 1.053985 -0.177442 1 1 1
1.201469 1.280778 0.278140 75 75 75
0.965092 1.028797 -0.123413 1 1 1
1.294836 1.380308 0.367880 100 100 100
1.117761 1.191544 -0.085622 1 1 1
1.313262 1.399950 0.443154 44 44 44
1.220365 1.300921 -0.031135 18 18 18
1.478989 1.576617 0.579237 76 76 76
1.029446 1.081781 -0.400134 6 6 6
1.163474 1.222622 0.029460 22 22 22
1.223834 1.286051 -0.409861 1 1 1
1.262566 1.326752 0.095984 9 9 9
0.946028 0.994122 -0.266751 1 1 1
1.179825 1.239805 0.149734 8 8 8
0.949146 0.997398 -0.218070 1 1 1
1.107081 1.163363 0.197185 8 8 8
0.982552 1.032502 -0.175004 1 1 1
1.213327 1.275010 0.278766 73 73 73
1.021874 1.073824 -0.129688 1 1 1
1.292499 1.358207 0.364445 76 76 76
1.151042 1.209558 -0.087506 1 1 1
1.559683 1.638974 0.522336 100 100 100
1.231021 1.293604 -0.031170 15 15 15
1.583456 1.663955 0.615472 81 81 81
1.037437 1.090177 -0.403240 5 5 5
1.164852 1.224071 0.029495 19 19 19
1.166068 1.225348 -0.390515 0 0 0
1.266696 1.331092 0.096298 9 9 9
0.973096 1.022566 -0.274383 1 1 1
1.190813 1.251351 0.151128 10 10 10
0.960040 1.008846 -0.220573 1 1 1
1.104344 1.160487 0.196697 8 8 8
0.985289 1.035379 -0.175492 1 1 1
1.211965 1.273579 0.278453 79 79 79
1.021874 1.073824 -0.129688 1 1 1
1.284379 1.349674 0.362155 77 77 77
1.155172 1.213898 -0.087820 1 1 1
1.559683 1.638974 0.522336 72 72 72
1.236536 1.299398 -0.031310 18 18 18
1.583456 1.663955 0.615472 83 83 83
1.051539 1.090042 -0.405828 6 6 6
1.187041 1.230505 0.029844 20 20 20
0.957906 0.992981 -0.318531 0 0 0
1.268794 1.315252 0.095775 9 9 9
0.966403 1.001789 -0.270567 1 1 1
1.211753 1.256122 0.152697 8 8 8
0.975114 1.010818 -0.222450 1 1 1
1.110840 1.151514 0.196453 8 8 8
1.025391 1.062936 -0.181342 1 1 1
1.220606 1.265300 0.278453 91 91 91
1.098324 1.138540 -0.138403 1 1 1
1.288084 1.335248 0.360629 70 70 70
1.199461 1.243381 -0.090541 10 10 10
1.562686 1.619905 0.519637 72 72 72
1.259235 1.305343 -0.031659 17 17 17
1.600110 1.658700 0.617542 86 86 86
1.048857 1.087262 -0.404793 6 6 6
1.188429 1.231945 0.029879 22 22 22
0.974142 1.009811 -0.323930 0 0 0
1.267407 1.313815 0.095670 9 9 9
0.958225 0.993312 -0.268277 1 1 1
1.214519 1.258990 0.153045 10 10 10
0.972371 1.007975 -0.221824 1 1 1
1.124622 1.165801 0.198891 8 8 8
1.025391 1.062936 -0.181342 1 1 1
1.208263 1.252505 0.275638 75 75 75
1.114923 1.155747 -0.140495 1 1 1
1.304440 1.352204 0.365208 66 66 66
1.193915 1.237631 -0.090123 17 17 17
1.562686 1.619905 0.519637 73 73 73
1.259235 1.305343 -0.031659 20 20 20
1.605475 1.664261 0.619613 83 83 83
1.046778 1.070429 -0.401170 9 9 9
1.185602 1.212389 0.029599 15 15 15
0.964643 0.986437 -0.318531 0 0 0
1.293078 1.322293 0.096926 9 9 9
0.962219 0.983959 -0.267514 1 1 1
1.214703 1.242147 0.152000 10 10 10
0.972304 0.994271 -0.220260 1 1 1
1.140859 1.166635 0.200353 8 8 8
1.032602 1.055932 -0.181342 1 1 1
1.212617 1.240015 0.274699 79 79 79
1.114406 1.139585 -0.139449 1 1 1
1.347930 1.378385 0.374749 95 95 95
1.219068 1.246611 -0.091379 18 18 18
1.576401 1.612017 0.520537 73 73 73
1.265295 1.293882 -0.031589 19 19 19
1.608662 1.645007 0.616507 81 81 81
1.045428 1.069048 -0.400652 6 6 6
1.181408 1.208100 0.029495 12 12 12
0.964643 0.986437 -0.318531 0 0 0
1.298664 1.328005 0.097345 9 9 9
0.959474 0.981152 -0.266751 1 1 1
1.213310 1.240723 0.151825 10 10 10
0.984734 1.006982 -0.223076 1 1 1
1.138083 1.163796 0.199866 8 8 8
1.032602 1.055932 -0.181342 1 1 1
1.216761 1.244251 0.275638 95 95 95
1.131122 1.156678 -0.141541 1 1 1
1.335576 1.365752 0.371314 92 92 92
1.219068 1.246611 -0.091379 27 27 27
1.579126 1.614804 0.521437 76 76 76
1.262499 1.291023 -0.031519 14 14 14
1.608662 1.645007 0.616507 83 83 83
1.051875 1.059984 -0.400134 4 4 4
1.181780 1.190891 0.029285 11 11 11
0.960866 0.968274 -0.314931 0 0 0
1.305550 1.315614 0.097136 9 9 9
0.969406 0.976879 -0.267514 1 1 1
1.236406 1.245938 0.153568 8 8 8
1.000437 1.008150 -0.224953 1 1 1
1.146583 1.155422 0.199866 8 8 8
1.040315 1.048334 -0.181342 1 1 1
1.228631 1.238103 0.276263 100 100 100
1.176059 1.185126 -0.146073 1 1 1
1.317894 1.328054 0.363682 57 57 57
1.218325 1.227718 -0.090646 28 28 28
1.593665 1.605951 0.522336 74 74 74
1.253617 1.263281 -0.031065 14 14 14
1.623399 1.635914 0.617542 91 91 91
1.047793 1.055871 -0.398581 1 1 1
1.186006 1.195149 0.029390 10 10 10
0.971848 0.979340 -0.318531 0 0 0
1.297109 1.307108 0.096508 9 9 9
0.952811 0.960156 -0.262935 1 1 1
1.246230 1.255837 0.154789 10 10 10
1.000437 1.008150 -0.224953 1 1 1
1.152176 1.161059 0.200841 8 8 8
1.082263 1.090606 -0.188654 1 1 1
1.216109 1.225484 0.273447 88 88 88
1.191497 1.200682 -0.147990 5 5 5
1.294385 1.304363 0.357194 60 60 60
1.211291 1.220629 -0.090123 34 34 34
1.585429 1.597652 0.519637 76 76 76
1.252208 1.261862 -0.031030 15 15 15
1.623399 1.635914 0.617542 86 86 86
0.956145 0.950819 -0.361311 1 1 1
1.196742 1.190077 0.029460 11 11 11
0.994903 0.989362 -0.323930 0 0 0
1.307165 1.299885 0.096612 9 9 9
0.975863 0.970428 -0.267514 1 1 1
1.258770 1.251759 0.155312 9 9 9
1.077136 1.071137 -0.240596 1 1 1
1.171112 1.164589 0.202791 8 8 8
1.106363 1.100201 -0.191579 1 1 1
1.200398 1.193712 0.268129 81 81 81
1.210736 1.203993 -0.149385 12 12 12
1.311360 1.304056 0.359484 95 95 95
1.225025 1.218202 -0.090541 31 31 31
1.598754 1.589850 0.520537 77 77 77
1.246370 1.239429 -0.030681 20 20 20
1.642432 1.633284 0.620648 83 83 83
0.939707 0.934473 -0.355100 1 1 1
1.199578 1.192897 0.029529 7 7 7
0.978321 0.972873 -0.318531 0 0 0
1.314246 1.306927 0.097136 9 9 9
0.967511 0.962122 -0.265225 1 1 1
1.250293 1.243330 0.154266 8 8 8
1.007101 1.001492 -0.224953 1 1 1
1.168297 1.161790 0.202303 8 8 8
1.086657 1.080605 -0.188166 1 1 1
1.182189 1.175604 0.264061 68 68 68
1.198021 1.191349 -0.147816 11 11 11
1.337810 1.330359 0.366735 79 79 79
1.229274 1.222427 -0.090855 34 34 34
1.601518 1.592598 0.521437 76 76 76
1.239281 1.232378 -0.030507 25 25 25
1.634213 1.625111 0.617542 86 86 86
0.946369 0.927725 -0.355100 1 1 1
1.208084 1.184283 0.029529 7 7 7
1.001957 0.982217 -0.323930 0 0 0
1.300745 1.275118 0.095461 10 10 10
1.008018 0.988159 -0.274383 1 1 1
1.264849 1.239930 0.154963 8 8 8
1.014242 0.994260 -0.224953 1 1 1
1.185086 1.161738 0.203766 8 8 8
1.108537 1.086697 -0.190604 1 1 1
1.160948 1.138075 0.257491 51 51 51
1.202247 1.178561 -0.147293 15 15 15
1.358511 1.331746 0.369788 64 64 64
1.237989 1.213599 -0.090855 34 34 34
1.615656 1.583826 0.522336 77 77 77
1.248068 1.223479 -0.030507 25 25 25
1.643041 1.610671 0.616507 86 86 86
0.954647 0.935839 -0.358206 1 1 1
1.213796 1.189882 0.029669 7 7 7
1.001957 0.982217 -0.323930 0 0 0
1.267941 1.242961 0.093053 13 13 13
0.979979 0.960672 -0.266751 1 1 1
1.277654 1.252483 0.156532 7 7 7
1.014242 0.994260 -0.224953 1 1 1
1.185086 1.161738 0.203766 8 8 8
1.177998 1.154790 -0.202547 1 1 1
1.146841 1.124247 0.254362 51 51 51
1.215052 1.191114 -0.148862 16 16 16
1.501512 1.471930 0.408713 100 100 100
1.226579 1.202414 -0.090018 39 39 39
1.615656 1.583826 0.522336 77 77 77
1.249496 1.224879 -0.030542 15 15 15
1.651318 1.618785 0.619613 88 88 88
0.974882 0.942749 -0.363382 1 1 1
1.240554 1.199664 0.030123 7 7 7
1.000215 0.967246 -0.321230 0 0 0
1.256272 1.214863 0.091588 14 14 14
0.986495 0.953979 -0.266751 1 1 1
1.287582 1.245142 0.156706 7 7 7
1.020986 0.987333 -0.224953 1 1 1
1.192966 1.153645 0.203766 8 8 8
1.195820 1.156404 -0.204253 6 6 6
1.155887 1.117788 0.254675 50 50 50
1.223132 1.182816 -0.148862 12 12 12
1.508674 1.458946 0.407950 48 48 48
1.239043 1.198202 -0.090332 39 39 39
1.620796 1.567373 0.520537 76 76 76
1.246304 1.205225 -0.030262 15 15 15
1.662299 1.607507 0.619613 86 86 86
0.999879 0.966922 -0.372699 1 1 1
1.250617 1.209395 0.030367 7 7 7
0.980603 0.948281 -0.314931 0 0 0
1.244786 1.203756 0.090751 21 21 21
1.000608 0.967627 -0.270567 1 1 1
1.294744 1.252067 0.157578 7 7 7
1.020986 0.987333 -0.224953 1 1 1
1.198674 1.159164 0.204740 8 8 8
1.194393 1.155024 -0.204009 11 11 11
1.147367 1.109549 0.252798 50 50 50
1.220267 1.180046 -0.148513 12 12 12
1.467746 1.419368 0.396883 100 100 100
1.243350 1.202368 -0.090646 33 33 33
1.623598 1.570082 0.521437 77 77 77
1.249179 1.208005 -0.030332 15 15 15
1.662299 1.607507 0.619613 91 91 91
0.958911 0.914756 -0.355100 1 1 1
1.271842 1.213277 0.030681 9 9 9
1.006775 0.960416 -0.321230 0 0 0
1.248615 1.191120 0.090437 24 24 24
1.049788 1.001448 -0.282016 1 1 1
1.300353 1.240475 0.157229 7 7 7
1.027683 0.980361 -0.224953 1 1 1
1.210845 1.155089 0.205472 8 8 8
1.202227 1.146868 -0.204009 11 11 11
1.154893 1.101713 0.252798 50 50 50
1.219621 1.163461 -0.147468 13 13 13
1.610905 1.536727 0.432755 85 85 85
1.252951 1.195255 -0.090751 31 31 31
1.637067 1.561685 0.522336 73 73 73
1.247244 1.189812 -0.030088 14 14 14
1.667611 1.590821 0.617542 81 81 81
0.958911 0.914756 -0.355100 1 1 1
1.264607 1.206375 0.030507 9 9 9
1.015236 0.968487 -0.323930 0 0 0
1.252951 1.195255 0.090751 24 24 24
1.049788 1.001448 -0.282016 1 1 1
1.300353 1.240475 0.157229 7 7 7
1.027683 0.980361 -0.224953 1 1 1
1.219464 1.163310 0.206934 8 8 8
1.190736 1.135906 -0.202059 7 7 7
1.160610 1.107167 0.254050 50 50 50
1.216738 1.160710 -0.147119 12 12 12
1.603803 1.529952 0.430847 79 79 79
1.250060 1.192498 -0.090541 37 37 37
1.639888 1.564375 0.523236 77 77 77
1.260267 1.202235 -0.030402 15 15 15
1.667611 1.590821 0.617542 86 86 86
1.007487 0.947749 -0.370629 1 1 1
1.278825 1.202998 0.030646 10 10 10
1.004939 0.945352 -0.318531 0 0 0
1.256900 1.182374 0.090437 24 24 24
1.056753 0.994094 -0.282016 1 1 1
1.316237 1.238192 0.158101 7 7 7
1.034502 0.973163 -0.224953 1 1 1
1.218880 1.146608 0.205472 7 7 7
1.140802 1.073160 -0.192310 2 2 2
1.168311 1.099038 0.254050 49 49 49
1.230616 1.157648 -0.147816 12 12 12
1.615875 1.520063 0.431228 85 85 85
1.248172 1.174163 -0.089809 37 37 37
1.653608 1.555559 0.524136 76 76 76
1.268629 1.193407 -0.030402 18 18 18
1.681490 1.581788 0.618578 83 83 83
0.999044 0.939807 -0.367523 1 1 1
1.290477 1.213959 0.030926 12 12 12
1.004939 0.945352 -0.318531 0 0 0
1.252536 1.178268 0.090123 24 24 24
1.058183 0.995439 -0.282397 1 1 1
1.324944 1.246383 0.159146 7 7 7
1.092055 1.027302 -0.237468 1 1 1
1.224663 1.152048 0.206447 7 7 7
1.075737 1.011953 -0.181342 1 1 1
1.169750 1.100391 0.254362 47 47 47
1.242226 1.168570 -0.149211 12 12 12
1.620164 1.524099 0.432373 77 77 77
1.239443 1.165952 -0.089180 35 35 35
1.645091 1.547547 0.521437 74 74 74
1.271542 1.196147 -0.030472 19 19 19
1.684304 1.584435 0.619613 83 83 83
0.988585 0.917044 -0.361311 1 1 1
1.307717 1.213080 0.031135 13 13 13
1.028659 0.954217 -0.323930 0 0 0
1.263660 1.172212 0.090332 26 26 26
1.065107 0.988028 -0.282397 1 1 1
1.339456 1.242523 0.159844 7 7 7
1.151336 1.068016 -0.248731 1 1 1
1.241408 1.151571 0.207909 7 7 7
1.049303 0.973367 -0.175736 1 1 1
1.168714 1.084137 0.252485 51 51 51
1.244511 1.154449 -0.148513 12 12 12
1.633644 1.515421 0.433136 77 77 77
1.259267 1.168137 -0.090018 35 35 35
1.655855 1.536025 0.521437 73 73 73
1.276930 1.184521 -0.030402 16 16 16
1.700990 1.577893 0.621683 91 91 91
0.963092 0.893395 -0.351994 1 1 1
1.309183 1.214440 0.031170 16 16 16
1.034374 0.959519 -0.325729 0 0 0
1.265124 1.173570 0.090437 24 24 24
1.065107 0.988028 -0.282397 1 1 1
1.330692 1.234393 0.158798 7 7 7
1.162922 1.078764 -0.251234 1 1 1
1.253051 1.162371 0.209859 7 7 7
1.071133 0.993618 -0.179392 1 1 1
1.174507 1.089511 0.253737 51 51 51
1.241590 1.151739 -0.148165 12 12 12
1.633644 1.515421 0.433136 77 77 77
1.253410 1.162704 -0.089599 37 37 37
1.658712 1.538675 0.522336 76 76 76
1.276930 1.184521 -0.030402 18 18 18
1.695325 1.572638 0.619613 86 86 86
0.992112 0.907512 -0.360276 1 1 1
1.316154 1.203921 0.031135 20 20 20
1.046799 0.957535 -0.327529 0 0 0
1.277707 1.168753 0.090751 24 24 24
1.071979 0.980568 -0.282397 1 1 1
1.349568 1.234486 0.160018 7 7 7
1.193745 1.091951 -0.256240 1 1 1
1.266994 1.158954 0.210834 7 7 7
1.061932 0.971378 -0.176711 1 1 1
1.180627 1.079952 0.253424 50 50 50
1.243720 1.137664 -0.147468 12 12 12
1.635492 1.496029 0.430847 76 76 76
1.264444 1.156621 -0.089809 37 37 37
1.675165 1.532319 0.524136 79 79 79
1.279266 1.170179 -0.030262 19 19 19
1.706262 1.560764 0.619613 83 83 83
1.049130 0.959668 -0.380982 1 1 1
1.314678 1.202572 0.031100 25 25 25
1.018040 0.931229 -0.318531 0 0 0
1.276234 1.167405 0.090646 24 24 24
1.170485 1.070674 -0.308347 1 1 1
1.352508 1.237176 0.160367 7 7 7
1.193745 1.091951 -0.256240 1 1 1
1.258206 1.150915 0.209372 7 7 7
1.073650 0.982096 -0.178660 1 1 1
1.190830 1.089285 0.255614 47 47 47
1.246660 1.140353 -0.147816 16 16 16
1.626800 1.488078 0.428557 35 35 35
1.261496 1.153925 -0.089599 37 37 37
1.678041 1.534950 0.525036 74 74 74
1.288119 1.178277 -0.030472 19 19 19
1.706262 1.560764 0.619613 83 83 83
1.012769 0.913503 -0.365452 1 1 1
1.321557 1.192025 0.031065 27 27 27
1.047670 0.944983 -0.325729 0 0 0
1.279903 1.154454 0.090332 26 26 26
1.320799 1.191341 -0.345746 1 1 1
1.372948 1.238379 0.161761 7 7 7
1.230676 1.110052 -0.262497 1 1 1
1.266210 1.142103 0.209372 7 7 7
1.050999 0.947985 -0.173786 1 1 1
1.196939 1.079621 0.255301 46 46 46
1.248673 1.126285 -0.147119 21 21 21
1.239160 1.117704 0.324375 15 15 15
1.268038 1.143752 -0.089494 34 34 34
1.682928 1.517977 0.523236 77 77 77
1.299283 1.171934 -0.030542 15 15 15
1.725724 1.556578 0.622719 88 88 88
1.012769 0.913503 -0.365452 1 1 1
1.331951 1.201400 0.031310 29 29 29
1.041882 0.939762 -0.323930 0 0 0
1.282869 1.157129 0.090541 26 26 26
1.339751 1.208436 -0.350707 2 2 2
1.384784 1.249055 0.163156 7 7 7
1.218941 1.099467 -0.259994 1 1 1
1.280951 1.155399 0.211809 7 7 7
1.062791 0.958622 -0.175736 1 1 1
1.194005 1.076975 0.254675 37 37 37
1.254590 1.131622 -0.147816 21 21 21
1.243534 1.121649 0.325520 56 56 56
1.273971 1.149103 -0.089913 34 34 34
1.680034 1.515366 0.522336 70 70 70
1.294828 1.167916 -0.030437 20 20 20
1.728593 1.559166 0.623754 88 88 88
1.025055 0.911367 -0.367523 1 1 1
1.347986 1.198482 0.031484 36 36 36
1.054405 0.937462 -0.325729 0 0 0
1.292609 1.149247 0.090646 28 28 28
1.345429 1.196209 -0.349944 3 3 3
1.384752 1.231171 0.162110 7 7 7
1.209063 1.074966 -0.256240 1 1 1
1.295120 1.151479 0.212784 8 8 8
1.072591 0.953630 -0.176223 1 1 1
1.203158 1.069716 0.254988 22 22 22
1.247766 1.109377 -0.146073 22 22 22
1.261798 1.121853 0.328191 44 44 44
1.286639 1.143939 -0.090227 36 36 36
1.693747 1.505895 0.523236 73 73 73
1.304647 1.159950 -0.030472 15 15 15
1.731043 1.539055 0.620648 81 81 81
1.062592 0.944741 -0.380982 1 1 1
1.330053 1.182538 0.031065 34 34 34
1.074794 0.955589 -0.332028 0 0 0
1.291117 1.147920 0.090541 31 31 31
1.357167 1.206645 -0.352997 2 2 2
1.390708 1.236466 0.162807 7 7 7
1.238588 1.101217 -0.262497 1 1 1
1.301054 1.156755 0.213759 7 7 7
1.081492 0.961544 -0.177686 1 1 1
1.212015 1.077591 0.256865 15 15 15
1.253722 1.114673 -0.146770 21 21 21
1.257397 1.117940 0.327047 46 46 46
1.295595 1.151901 -0.090855 33 33 33
1.699573 1.511074 0.525036 74 74 74
1.301658 1.157292 -0.030402 19 19 19
1.728156 1.536487 0.619613 83 83 83
1.069162 0.937300 -0.380982 1 1 1
1.347298 1.181133 0.031275 31 31 31
1.110746 0.973756 -0.341026 0 0 0
1.303605 1.142828 0.090855 29 29 29
1.368510 1.199729 -0.353760 2 2 2
1.402303 1.229354 0.163156 7 7 7
1.255158 1.100357 -0.264374 1 1 1
1.303127 1.142409 0.212784 7 7 7
1.076237 0.943502 -0.175736 1 1 1
1.237333 1.084730 0.260620 10 10 10
1.270463 1.113774 -0.147816 21 21 21
1.262218 1.106546 0.326283 46 46 46
1.293092 1.133612 -0.090123 40 40 40
1.713011 1.501742 0.525936 76 76 76
1.315721 1.153450 -0.030542 19 19 19
1.744651 1.529479 0.621683 83 83 83
1.031392 0.904188 -0.367523 1 1 1
1.342787 1.177178 0.031170 30 30 30
1.156173 1.013579 -0.354973 1 1 1
1.296095 1.136245 0.090332 33 33 33
1.374415 1.204906 -0.355286 2 2 2
1.420281 1.245115 0.165247 7 7 7
1.261100 1.105565 -0.265626 1 1 1
1.309098 1.147644 0.213759 7 7 7
1.076237 0.943502 -0.175736 1 1 1
1.235848 1.083428 0.260307 9 9 9
1.264470 1.108520 -0.147119 21 21 21
1.269600 1.113017 0.328191 49 49 49
1.288586 1.129662 -0.089809 37 37 37
1.707150 1.496603 0.524136 77 77 77
1.323239 1.160041 -0.030716 22 22 22
1.750462 1.534573 0.623754 86 86 86
1.046291 0.904729 -0.370629 1 1 1
1.355306 1.171935 0.031275 28 28 28
1.160097 1.003137 -0.354073 3 3 3
1.302289 1.126090 0.090227 24 24 24
1.376645 1.190386 -0.353760 2 2 2
1.428723 1.235418 0.165247 7 7 7
1.298480 1.122797 -0.271883 1 1 1
1.322885 1.143900 0.214734 7 7 7
1.094646 0.946542 -0.177686 1 1 1
1.237217 1.069823 0.259055 9 9 9
1.275000 1.102494 -0.147468 21 21 21
1.281601 1.108202 0.329336 45 45 45
1.294735 1.119558 -0.089704 34 34 34
1.717297 1.484948 0.524136 77 77 77
1.322029 1.143159 -0.030507 22 22 22
1.769634 1.530204 0.626860 86 86 86
1.031678 0.892093 -0.365452 1 1 1
1.358332 1.174550 0.031345 27 27 27
1.173364 1.014609 -0.358122 2 2 2
1.320418 1.141767 0.091483 26 26 26
1.373675 1.187818 -0.352997 2 2 2
1.410638 1.219780 0.163156 7 7 7
1.346295 1.164143 -0.281895 1 1 1
1.331895 1.151691 0.216196 7 7 7
1.117170 0.966018 -0.181342 1 1 1
1.237217 1.069823 0.259055 9 9 9
1.271986 1.099887 -0.147119 21 21 21
1.286057 1.112054 0.330481 42 42 42
1.308332 1.131316 -0.090646 33 33 33
1.726142 1.492596 0.526835 76 76 76
1.319003 1.140543 -0.030437 22 22 22
1.755021 1.517568 0.621683 83 83 83
1.102564 0.940016 -0.388229 1 1 1
1.358890 1.158552 0.031170 25 25 25
1.186350 1.011449 -0.359922 2 2 2
1.332916 1.136408 0.091797 22 22 22
1.384922 1.180746 -0.353760 2 2 2
1.432765 1.221536 0.164724 7 7 7
1.339358 1.141900 -0.278766 1 1 1
1.348966 1.150092 0.217659 7 7 7
1.129929 0.963347 -0.182317 1 1 1
1.259688 1.073975 0.262184 7 7 7
1.273569 1.085810 -0.146422 22 22 22
1.290801 1.100501 0.329718 41 41 41
1.313158 1.119563 -0.090437 34 34 34
1.736520 1.480509 0.526835 76 76 76
1.325412 1.130010 -0.030402 21 21 21
1.765573 1.505279 0.621683 83 83 83
1.131966 0.965083 -0.398581 1 1 1
1.358890 1.158552 0.031170 24 24 24
1.171521 0.998806 -0.355423 2 2 2
1.326837 1.131225 0.091379 21 21 21
1.386416 1.182020 -0.354141 2 2 2
1.432765 1.221536 0.164724 7 7 7
1.348377 1.149589 -0.280643 1 1 1
1.342924 1.144940 0.216684 7 7 7
1.163162 0.991680 -0.187679 1 1 1
1.262694 1.076538 0.262810 7 7 7
1.282666 1.093566 -0.147468 19 19 19
1.290801 1.100501 0.329718 39 39 39
1.305559 1.113084 -0.089913 40 40 40
1.739486 1.483038 0.527735 79 79 79
1.337586 1.140389 -0.030681 21 21 21
1.771453 1.510293 0.623754 86 86 86
1.153464 0.969588 -0.403758 1 1 1
1.366945 1.149037 0.031170 23 23 23
1.176973 0.989349 -0.354973 3 3 3
1.336231 1.123219 0.091483 19 19 19
1.408159 1.183682 -0.357576 2 2 2
1.456509 1.224324 0.166467 7 7 7
1.379051 1.159214 -0.285336 1 1 1
1.363041 1.145755 0.218634 7 7 7
1.151823 0.968208 -0.184754 1 1 1
1.276227 1.072781 0.264061 7 7 7
1.299420 1.092276 -0.148513 21 21 21
1.277413 1.073777 0.324375 36 36 36
1.319413 1.109083 -0.090332 39 39 39
1.740846 1.463334 0.525036 74 74 74
1.340922 1.127163 -0.030577 23 23 23
1.787869 1.502861 0.625824 86 86 86
1.203743 1.011852 -0.421357 9 9 9
1.374598 1.155471 0.031345 21 21 21
1.187415 0.998127 -0.358122 2 2 2
1.337760 1.124505 0.091588 17 17 17
1.390125 1.168522 -0.352997 2 2 2
1.459560 1.226888 0.166816 7 7 7
1.380563 1.160485 -0.285649 1 1 1
1.366080 1.148310 0.219121 7 7 7
1.185253 0.996309 -0.190116 1 1 1
1.277739 1.074052 0.264374 7 7 7
1.296370 1.089712 -0.148165 20 20 20
1.259378 1.058618 0.319796 38 38 38
1.322471 1.111653 -0.090541 37 37 37
1.740846 1.463334 0.525036 73 73 73
1.334799 1.122016 -0.030437 24 24 24
1.790827 1.505347 0.626860 86 86 86
1.200539 0.994585 -0.417734 16 16 16
1.384371 1.146881 0.031379 21 21 21
1.202031 0.995821 -0.360372 3 3 3
1.353462 1.121274 0.092111 17 17 17
1.392404 1.153535 -0.351470 2 2 2
1.462164 1.211328 0.166119 7 7 7
1.401002 1.160658 -0.288152 1 1 1
1.383434 1.146104 0.220584 7 7 7
1.229040 1.018196 -0.195966 1 1 1
1.286914 1.066142 0.264687 7 7 7
1.301066 1.077866 -0.147816 21 21 21
1.268433 1.050832 0.320177 47 47 47
1.333468 1.104710 -0.090751 39 39 39
1.253053 1.038090 0.375668 63 63 63
1.339714 1.109884 -0.030367 24 24 24
1.792627 1.485099 0.623754 88 88 88
1.212441 1.004445 -0.421875 27 27 27
1.381292 1.144329 0.031310 19 19 19
1.200530 0.994577 -0.359922 2 2 2
1.364229 1.130193 0.092844 16 16 16
1.406011 1.164808 -0.354905 1 1 1
1.459096 1.208786 0.165770 7 7 7
1.404044 1.163178 -0.288778 1 1 1
1.389548 1.151169 0.221558 7 7 7
1.201524 0.995401 -0.191579 1 1 1
1.296041 1.073703 0.266564 7 7 7
1.301066 1.077866 -0.147816 19 19 19
1.260874 1.044569 0.318269 51 51 51
1.336544 1.107258 -0.090960 39 39 39
1.263558 1.046793 0.378818 36 36 36
1.345874 1.114987 -0.030507 23 23 23
1.795602 1.487564 0.624789 86 86 86
1.220746 0.997391 -0.422393 27 27 27
1.387500 1.133635 0.031275 19 19 19
1.204254 0.983917 -0.359022 2 2 2
1.376530 1.124672 0.093158 17 17 17
1.416947 1.157695 -0.355668 2 2 2
1.434889 1.172354 0.162110 7 7 7
1.411929 1.153594 -0.288778 2 2 2
1.391203 1.136661 0.220584 6 6 6
1.272835 1.039950 -0.201816 1 1 1
1.310968 1.071105 0.268129 9 9 9
1.317630 1.076548 -0.148862 15 15 15
1.269475 1.037205 0.318651 54 54 54
1.337863 1.093080 -0.090541 37 37 37
1.359626 1.110861 -0.030646 24 24 24
1.811670 1.480197 0.626860 86 86 86
1.214762 0.992502 -0.420322 12 12 12
1.393694 1.138696 0.031414 20 20 20
1.201236 0.981451 -0.358122 3 3 3
1.381170 1.128463 0.093472 16 16 16
1.429110 1.167632 -0.358721 2 2 2
1.404031 1.147142 0.158623 9 9 9
1.425696 1.164843 -0.291594 3 3 3
1.395815 1.140428 0.221315 6 6 6
1.245165 1.017343 -0.197428 1 1 1
1.314027 1.073605 0.268754 6 6 6
1.309915 1.070245 -0.147990 11 11 11
1.274036 1.040931 0.319796 62 62 62
1.340957 1.095607 -0.090751 37 37 37
1.264617 1.033236 0.377018 61 61 61
1.362723 1.113392 -0.030716 23 23 23
1.814662 1.482641 0.627895 86 86 86
1.399856 1.127929 0.031379 16 16 16
1.209406 0.974474 -0.358572 3 3 3
1.388819 1.119036 0.093472 16 16 16
1.412565 1.138169 -0.352615 1 1 1
1.391639 1.121308 0.156357 10 10 10
1.436669 1.157590 -0.292220 4 4 4
1.415911 1.140865 0.223265 6 6 6
1.267519 1.021298 -0.199866 1 1 1
1.321304 1.064636 0.268754 7 7 7
1.301655 1.048804 -0.146247 7 7 7
1.291793 1.040858 0.322467 64 64 64
1.348383 1.086455 -0.090751 39 39 39
1.270104 1.023381 0.376568 62 62 62
1.362485 1.097817 -0.030542 22 22 22
1.827721 1.472679 0.628930 86 86 86
1.191403 0.959969 -0.409969 1 1 1
1.409199 1.135456 0.031589 16 16 16
1.220028 0.983033 -0.361721 2 2 2
1.391929 1.121542 0.093681 15 15 15
1.421737 1.145559 -0.354905 1 1 1
1.377676 1.110057 0.154789 15 15 15
1.438207 1.158830 -0.292532 4 4 4
1.425186 1.148338 0.224727 7 7 7
1.264427 1.018807 -0.199378 1 1 1
1.327457 1.069594 0.270006 7 7 7
1.248906 1.006302 -0.140321 2 2 2
1.291793 1.040858 0.322467 55 55 55
1.356159 1.092720 -0.091274 36 36 36
1.286796 1.036831 0.381517 64 64 64
1.367156 1.101581 -0.030646 23 23 23
1.818695 1.465407 0.625824 86 86 86
1.205639 0.957635 -0.412558 1 1 1
1.406130 1.116885 0.031345 19 19 19
1.223809 0.972067 -0.360821 2 2 2
1.410673 1.120493 0.094414 13 13 13
1.432775 1.138048 -0.355668 1 1 1
1.382271 1.097934 0.154440 15 15 15
1.426153 1.132789 -0.288465 3 3 3
1.433168 1.138360 0.224727 7 7 7
1.311924 1.042057 -0.205715 1 1 1
1.337985 1.062757 0.270632 7 7 7
1.191936 0.946751 -0.133174 1 1 1
1.299028 1.031814 0.322467 51 51 51
1.371574 1.089437 -0.091797 37 37 37
1.298580 1.031458 0.382867 54 54 54
1.377945 1.094497 -0.030716 22 22 22
1.831906 1.455077 0.626860 83 83 83
1.217741 0.967248 -0.416699 1 1 1
1.406130 1.116885 0.031345 19 19 19
1.219231 0.968431 -0.359472 3 3 3
1.416929 1.125462 0.094833 15 15 15
1.438924 1.142932 -0.357194 1 1 1
1.379151 1.095455 0.154091 16 16 16
1.430794 1.136475 -0.289404 2 2 2
1.437831 1.142064 0.225458 8 8 8
1.311924 1.042057 -0.205715 1 1 1
1.345719 1.068901 0.272196 7 7 7
1.151373 0.914532 -0.128642 1 1 1
1.299028 1.031814 0.322467 54 54 54
1.357499 1.078257 -0.090855 36 36 36
1.298580 1.031458 0.382867 50 50 50
1.381077 1.096985 -0.030786 22 22 22
1.834932 1.457480 0.627895 88 88 88
1.206211 0.944431 -0.410487 1 1 1
1.415468 1.108274 0.031379 16 16 16
1.229031 0.962299 -0.360372 7 7 7
1.429469 1.119236 0.095147 16 16 16
1.442230 1.129228 -0.356050 2 2 2
1.388334 1.087029 0.154266 15 15 15
1.454246 1.138636 -0.292532 1 1 1
1.447332 1.133222 0.225702 10 10 10
1.356678 1.062243 -0.211565 1 1 1
1.354704 1.060697 0.272509 6 6 6
1.189104 0.931037 -0.132128 1 1 1
1.303109 1.020299 0.321704 80 80 80
1.361848 1.066291 -0.090646 36 36 36
1.298078 1.016360 0.380617 46 46 46
1.382403 1.082385 -0.030646 23 23 23
1.851146 1.449399 0.629966 86 86 86
1.210775 0.948004 -0.412040 1 1 1
1.421766 1.113205 0.031519 16 16 16
1.227497 0.961097 -0.359922 6 6 6
1.432614 1.121699 0.095356 13 13 13
1.439139 1.126807 -0.355286 2 2 2
1.389903 1.088257 0.154440 13 13 13
1.454246 1.138636 -0.292532 1 1 1
1.455147 1.139341 0.226921 8 8 8
1.319166 1.032872 -0.205715 1 1 1
1.354704 1.060697 0.272509 6 6 6
1.173417 0.918754 -0.130385 1 1 1
1.312383 1.027561 0.323994 79 79 79
1.361848 1.066291 -0.090646 36 36 36
1.301147 1.018763 0.381517 26 26 26
1.383978 1.083618 -0.030681 22 22 22
1.854189 1.451780 0.631001 88 88 88
1.214468 0.936956 -0.411005 1 1 1
1.429695 1.103002 0.031519 16 16 16
1.240514 0.957050 -0.361721 3 3 3
1.454836 1.122399 0.096298 5 5 5
1.426958 1.100890 -0.350325 1 1 1
1.391344 1.073415 0.153743 7 7 7
1.474869 1.137854 -0.295035 2 2 2
1.472693 1.136175 0.228383 3 3 3
1.326524 1.023406 -0.205715 1 1 1
1.370080 1.057010 0.274073 5 5 5
1.167341 0.900598 -0.128990 1 1 1
1.319703 1.018144 0.323994 68 68 68
1.378932 1.063839 -0.091274 34 34 34
1.294517 0.998713 0.377468 11 11 11
1.388530 1.071244 -0.030612 22 22 22
1.858412 1.433755 0.628930 86 86 86
1.231293 0.949936 -0.416699 5 5 5
1.426529 1.100559 0.031449 16 16 16
1.240514 0.957050 -0.361721 2 2 2
1.462743 1.128499 0.096822 13 13 13
1.447165 1.116480 -0.355286 2 2 2
1.437092 1.108709 0.158798 1 1 1
1.477997 1.140267 -0.295661 2 2 2
1.445974 1.115561 0.224240 1 1 1
1.367388 1.054933 -0.212053 1 1 1
1.382592 1.066663 0.276576 6 6 6
1.164186 0.898164 -0.128642 1 1 1
1.315039 1.014546 0.322849 60 60 60
1.382094 1.066279 -0.091483 34 34 34
1.294517 0.998713 0.377468 14 14 14
1.398030 1.078573 -0.030821 22 22 22
1.861471 1.436115 0.629966 86 86 86
1.242343 0.945042 -0.418252 11 11 11
1.435578 1.092035 0.031484 18 18 18
1.239245 0.942685 -0.359472 2 2 2
1.471980 1.119725 0.096926 17 17 17
1.465669 1.114924 -0.357958 1 1 1
1.495349 1.137501 0.164376 1 1 1
1.488869 1.132572 -0.296287 2 2 2
1.431415 1.088867 0.220827 1 1 1
1.333459 1.014353 -0.205715 1 1 1
1.392965 1.059619 0.277202 4 4 4
1.189302 0.904694 -0.130734 1 1 1
1.321915 1.005572 0.322849 56 56 56
1.379783 1.049591 -0.090855 36 36 36
1.316795 1.001677 0.381967 25 25 25
1.403747 1.067821 -0.030786 22 22 22
1.877353 1.428090 0.632036 86 86 86
1.246956 0.948551 -0.419804 5 5 5
1.440353 1.095667 0.031589 16 16 16
1.247000 0.948584 -0.361721 1 1 1
1.470390 1.118516 0.096822 23 23 23
1.400042 1.065002 -0.341930 1 1 1
1.482663 1.127851 0.162981 1 1 1
1.504591 1.144532 -0.299416 2 2 2
1.421935 1.081656 0.219365 1 1 1
1.374537 1.045601 -0.212053 1 1 1
1.370954 1.042875 0.272822 1 1 1
1.186130 0.902281 -0.130385 1 1 1
1.325040 1.007949 0.323612 56 56 56
1.376603 1.047173 -0.090646 33 33 33
1.304387 0.992238 0.378368 33 33 33
1.402156 1.066610 -0.030751 22 22 22
1.880428 1.430429 0.633071 88 88 88
1.255093 0.940981 -0.420322 2 2 2
1.451167 1.087984 0.031659 15 15 15
1.261388 0.945701 -0.363971 0 0 0
1.471771 1.103431 0.096403 22 22 22
1.398018 1.048136 -0.339640 1 1 1
1.464994 1.098350 0.160192 1 1 1
1.509383 1.131630 -0.298790 1 1 1
1.445334 1.083611 0.221802 1 1 1
1.372274 1.028835 -0.210590 1 1 1
1.198777 0.898759 -0.131082 1 1 1
1.338328 1.003384 0.325139 60 60 60
1.385478 1.038735 -0.090751 31 31 31
1.306605 0.979601 0.377018 43 43 43
1.411168 1.057995 -0.030786 22 22 22
1.896551 1.421902 0.635142 86 86 86
1.214906 0.910851 -0.406864 1 1 1
1.459167 1.093981 0.031833 18 18 18
1.267625 0.950376 -0.365770 0 0 0
1.476565 1.107025 0.096717 31 31 31
1.443572 1.082289 -0.350707 2 2 2
1.464994 1.098350 0.160192 1 1 1
1.518866 1.138740 -0.300667 1 1 1
1.423098 1.066940 0.218390 1 1 1
1.381803 1.035979 -0.212053 1 1 1
1.193994 0.895174 -0.130559 1 1 1
1.346182 1.009273 0.327047 52 52 52
1.395066 1.045923 -0.091379 30 30 30
1.315960 0.986615 0.379717 43 43 43
1.407968 1.055596 -0.030716 23 23 23
1.884186 1.412631 0.631001 88 88 88
1.261632 0.932196 -0.420322 1 1 1
1.452294 1.073073 0.031519 16 16 16
1.313412 0.970455 -0.377018 0 0 0
1.495502 1.104998 0.097450 46 46 46
1.482672 1.095519 -0.358339 2 2 2
1.453398 1.073888 0.158101 1 1 1
1.514069 1.118717 -0.298164 1 1 1
1.404968 1.038104 0.214490 1 1 1
1.427319 1.054619 -0.217902 1 1 1
1.209829 0.893920 -0.131605 1 1 1
1.346879 0.995183 0.325520 42 42 42
1.405547 1.038532 -0.091588 31 31 31
1.327517 0.980878 0.381067 47 47 47
1.424953 1.052871 -0.030926 22 22 22
1.897109 1.401738 0.632036 91 91 91
1.249202 0.923012 -0.416181 1 1 1
1.453902 1.074261 0.031554 18 18 18
1.316546 0.972771 -0.377918 0 0 0
1.492289 1.102625 0.097240 38 38 38
1.476356 1.090852 -0.356813 2 2 2
1.456602 1.076256 0.158449 1 1 1
1.510892 1.116370 -0.297538 1 1 1
1.404968 1.038104 0.214490 1 1 1
1.462443 1.080572 -0.223265 1 1 1
1.211432 0.895104 -0.131779 1 1 1
1.342142 0.991683 0.324375 43 43 43
1.403941 1.037345 -0.091483 33 33 33
1.327517 0.980878 0.381067 47 47 47
1.429778 1.056436 -0.031030 19 19 19
1.903324 1.406331 0.634107 86 86 86
1.276080 0.928829 -0.422910 2 2 2
1.469636 1.069714 0.031728 16 16 16
1.331351 0.969060 -0.380167 0 0 0
1.485608 1.081340 0.096298 20 20 20
1.471426 1.071016 -0.353760 2 2 2
1.461045 1.063460 0.158101 1 1 1
1.528424 1.112504 -0.299416 1 1 1
1.412360 1.028024 0.214490 1 1 1
1.434829 1.044379 -0.217902 1 1 1
1.227471 0.893448 -0.132825 1 1 1
1.365077 0.993608 0.328191 33 33 33
1.403254 1.021396 -0.090960 31 31 31
1.340805 0.975940 0.382867 45 45 45
1.434067 1.043824 -0.030961 22 22 22
1.916463 1.394949 0.635142 88 88 88
1.279204 0.931103 -0.423946 4 4 4
1.476103 1.074421 0.031868 20 20 20
1.325049 0.964472 -0.378368 3 3 3
1.480764 1.077813 0.095984 16 16 16
1.453965 1.058308 -0.349562 2 2 2
1.441715 1.049390 0.156009 1 1 1
1.531618 1.114829 -0.300041 1 1 1
1.489398 1.084098 -0.226190 1 1 1
1.437390 1.046242 0.281582 1 1 1
1.279018 0.930968 -0.138403 1 1 1
1.363489 0.992452 0.327810 37 37 37
1.414557 1.029623 -0.091693 28 28 28
1.332927 0.970206 0.380617 43 43 43
1.427600 1.039117 -0.030821 22 22 22
1.922710 1.399496 0.637212 91 91 91
1.280803 0.918995 -0.422393 4 4 4
1.483382 1.064349 0.031868 20 20 20
1.333167 0.956567 -0.378818 13 13 13
1.494557 1.072367 0.096403 4 4 4
1.437208 1.031218 -0.343838 2 2 2
1.435874 1.030261 0.154614 1 1 1
1.542381 1.106681 -0.300667 1 1 1
1.506420 1.080878 -0.227652 1 1 1
1.364229 0.978854 0.265939 1 1 1
1.272375 0.912948 -0.137009 1 1 1
1.373403 0.985437 0.328573 40 40 40
1.423156 1.021135 -0.091797 31 31 31
1.349000 0.967927 0.383317 43 43 43
1.434640 1.029376 -0.030821 20 20 20
1.929053 1.384124 0.636177 88 88 88
1.283942 0.921248 -0.423428 4 4 4
1.476883 1.059686 0.031728 29 29 29
1.341083 0.962247 -0.381067 24 24 24
1.484820 1.065381 0.095775 1 1 1
1.398925 1.003750 -0.334679 3 3 3
1.416448 1.016323 0.152523 1 1 1
1.539171 1.104378 -0.300041 1 1 1
1.517710 1.088979 -0.229358 1 1 1
1.444478 1.036434 0.281582 1 1 1
1.311226 0.940824 -0.141192 1 1 1
1.371808 0.984293 0.328191 24 24 24
1.426401 1.023464 -0.092007 31 31 31
1.356917 0.973608 0.385566 38 38 38
1.444388 1.036370 -0.031030 19 19 19
1.922774 1.379619 0.634107 86 86 86
1.296652 0.916723 -0.425499 1 1 1
1.487511 1.051658 0.031798 43 43 43
1.323900 0.935986 -0.374319 20 20 20
1.490591 1.053836 0.095670 1 1 1
1.380250 0.975825 -0.328573 4 4 4
1.410494 0.997208 0.151128 1 1 1
1.543618 1.091325 -0.299416 1 1 1
1.541484 1.089817 -0.231795 1 1 1
1.412967 0.998956 0.274073 1 1 1
1.340539 0.947750 -0.143633 1 1 1
1.372234 0.970158 0.326665 7 7 7
1.422096 1.005410 -0.091274 28 28 28
1.370045 0.968611 0.387366 42 42 42
1.458120 1.030879 -0.031170 22 22 22
1.944978 1.375084 0.638248 86 86 86
1.298230 0.917838 -0.426016 1 1 1
1.484245 1.049349 0.031728 23 23 23
1.312761 0.928112 -0.371169 14 14 14
1.464498 1.035388 0.093995 1 1 1
1.362616 0.963358 -0.324375 4 4 4
1.413748 0.999508 0.151477 1 1 1
1.546844 1.093606 -0.300041 1 1 1
1.520413 1.074919 -0.228627 1 1 1
1.379094 0.975008 0.267503 2 2 2
1.373076 0.970754 -0.147119 1 1 1
1.378646 0.974692 0.328191 1 1 1
1.430250 1.011175 -0.091797 27 27 27
1.363681 0.964111 0.385566 40 40 40
1.463018 1.034342 -0.031275 22 22 22
1.941823 1.372853 0.637212 86 86 86
1.315702 0.916481 -0.429640 9 9 9
1.499739 1.044677 0.031903 15 15 15
1.320808 0.920038 -0.371619 15 15 15
1.465135 1.020572 0.093577 1 1 1
1.348366 0.939234 -0.319414 12 12 12
1.414152 0.985059 0.150779 1 1 1
1.547957 1.078264 -0.298790 1 1 1
1.536024 1.069952 -0.229846 2 2 2
1.382626 0.963099 0.266877 4 4 4
1.379820 0.961144 -0.147119 1 1 1
1.387028 0.966166 0.328573 1 1 1
1.443830 1.005732 -0.092216 22 22 22
1.379972 0.961250 0.388266 38 38 38
1.452154 1.011530 -0.030891 22 22 22
1.957701 1.363680 0.639283 86 86 86
1.312532 0.914273 -0.428604 13 13 13
1.489894 1.037819 0.031694 11 11 11
1.330402 0.926721 -0.374319 25 25 25
1.438913 1.002307 0.091902 1 1 1
1.351588 0.941478 -0.320177 19 19 19
1.397803 0.973671 0.149036 1 1 1
1.570650 1.094071 -0.303170 1 1 1
1.358477 0.946278 0.203278 1 1 1
1.558828 1.085837 -0.233258 3 3 3
1.381005 0.961970 0.266564 4 4 4
1.379820 0.961144 -0.147119 1 1 1
1.390250 0.968410 0.329336 1 1 1
1.442191 1.004590 -0.092111 16 16 16
1.386368 0.965706 0.390065 41 41 41
1.460359 1.017245 -0.031065 23 23 23
1.954531 1.361472 0.638248 88 88 88
1.323661 0.908367 -0.430157 22 22 22
1.477317 1.013814 0.031275 1 1 1
1.340053 0.919616 -0.375218 26 26 26
1.445875 0.992237 0.091902 1 1 1
1.350034 0.926465 -0.318269 24 24 24
1.565219 1.074137 -0.300667 1 1 1
1.407606 0.965975 0.209615 1 1 1
1.566371 1.074928 -0.233258 3 3 3
1.392573 0.955658 0.267503 3 3 3
1.419351 0.974035 -0.150605 1 1 1
1.416402 0.972011 0.333916 1 1 1
1.427761 0.979806 -0.090751 12 12 12
1.402717 0.962620 0.392765 42 42 42
1.474020 1.011551 -0.031205 25 25 25
1.970359 1.352166 0.640318 86 86 86
1.333218 0.914926 -0.433263 22 22 22
1.469073 1.008157 0.031100 1 1 1
1.332019 0.914103 -0.372969 22 22 22
1.445875 0.992237 0.091902 1 1 1
1.356509 0.930909 -0.319796 24 24 24
1.571734 1.078608 -0.301919 1 1 1
1.423973 0.977207 0.212053 1 1 1
1.584375 1.087283 -0.235939 2 2 2
1.381172 0.947834 0.265313 1 1 1
1.386496 0.951488 -0.147119 1 1 1
1.403452 0.963124 0.330863 1 1 1
1.366830 0.937992 -0.086878 1 1 1
1.407537 0.965928 0.394114 43 43 43
1.483913 1.018340 -0.031414 40 40 40
1.973545 1.354352 0.641354 86 86 86
1.333171 0.901268 -0.431193 20 20 20
1.479389 1.000116 0.031170 1 1 1
1.331910 0.900416 -0.371169 17 17 17
1.422984 0.961984 0.090018 1 1 1
1.366227 0.923615 -0.320559 24 24 24
1.572680 1.063184 -0.300667 1 1 1
1.391292 0.940559 0.206203 1 1 1
1.555747 1.051737 -0.230577 1 1 1
1.427031 0.964721 0.272822 1 1 1
1.436020 0.970797 -0.151651 1 1 1
1.455683 0.984090 0.341548 1 1 1
1.265794 0.855719 -0.080074 2 2 2
1.412632 0.954986 0.393664 47 47 47
1.489329 1.006836 -0.031379 40 40 40
1.982952 1.340541 0.641354 88 88 88
