-1.822077 1.039716 0.332267 100 100 100
-1.792139 1.022632 0.401081 100 100 100
-1.967160 1.122504 -0.118698 38 38 38
-1.773812 1.012175 0.471497 100 100 100
-1.957402 1.116935 -0.039338 94 94 94
-1.745016 0.995743 0.538344 96 96 96
-1.926139 1.099096 0.038709 98 98 98
-1.897772 1.082909 0.114511 100 100 100
-1.874110 1.069407 0.188779 96 96 96
-1.839660 1.049749 0.260069 100 100 100
-1.835803 1.047548 0.334770 100 100 100
-1.805780 1.030417 0.404133 100 100 100
-1.967160 1.122504 -0.118698 50 50 50
-1.767042 1.008312 0.469698 100 100 100
-1.964350 1.120900 -0.039477 94 94 94
-1.750050 0.998616 0.539897 100 100 100
-1.928994 1.118199 0.038919 100 100 100
-1.892085 1.096803 0.114616 100 100 100
-1.871958 1.085136 0.189302 93 93 93
-1.854798 1.075189 0.263238 100 100 100
-1.814958 1.052094 0.332267 99 99 99
-1.802122 1.044653 0.404897 100 100 100
-1.975026 1.144882 -0.119640 63 63 63
-1.760137 1.020316 0.469698 100 100 100
-1.949754 1.130233 -0.039338 92 92 92
-1.748226 1.013411 0.541449 96 96 96
-1.941104 1.125219 0.039163 100 100 100
-1.898997 1.100810 0.115034 98 98 98
-1.875406 1.087135 0.189651 93 93 93
-1.856515 1.076184 0.263482 97 97 97
-1.816667 1.053085 0.332580 100 100 100
-1.808916 1.048592 0.406423 100 100 100
-1.976754 1.145884 -0.119745 67 67 67
-1.770253 1.026180 0.472397 99 99 99
-1.941104 1.125219 -0.039163 80 80 80
-1.748226 1.013411 0.541449 96 96 96
-1.912722 1.126230 0.038744 99 99 99
-1.905228 1.121817 0.115872 100 100 100
-1.869679 1.100886 0.189825 96 96 96
-1.859410 1.094839 0.264944 94 94 94
-1.817968 1.070438 0.334144 100 100 100
-1.794969 1.056896 0.404897 100 100 100
-1.979235 1.165393 -0.120373 74 74 74
-1.769944 1.042161 0.474197 100 100 100
-1.943739 1.144493 -0.039373 85 85 85
-1.736293 1.022347 0.539897 100 100 100
-1.923061 1.132317 0.038954 99 99 99
-1.912113 1.125871 0.116290 100 100 100
-1.878264 1.105940 0.190697 93 93 93
-1.852568 1.090811 0.263969 100 100 100
-1.824777 1.074447 0.335395 100 100 100
-1.796661 1.057892 0.405278 100 100 100
-1.980956 1.166406 -0.120477 89 89 89
-1.771623 1.043150 0.474647 100 100 100
-1.950632 1.148551 -0.039512 83 83 83
-1.746282 1.028228 0.543002 100 100 100
-1.915109 1.145715 0.038954 91 91 91
-1.904206 1.139193 0.116290 100 100 100
-1.877336 1.123118 0.191394 90 90 90
-1.850018 1.106775 0.264700 100 100 100
-1.829098 1.094259 0.337586 100 100 100
-1.797656 1.075449 0.407186 99 99 99
-1.972764 1.180208 -0.120477 90 90 90
-1.765970 1.056493 0.475097 100 100 100
-1.951146 1.167274 -0.039687 88 88 88
-1.745692 1.044361 0.545073 98 98 98
-1.939134 1.160088 0.039442 100 100 100
-1.899064 1.136116 0.115976 100 100 100
-1.884175 1.127209 0.192091 93 93 93
-1.853425 1.108813 0.265188 91 91 91
-1.822317 1.090202 0.336334 100 100 100
-1.806079 1.080488 0.409094 100 100 100
-1.986476 1.188411 -0.121315 90 90 90
-1.769315 1.058494 0.475996 97 97 97
-1.949430 1.166248 -0.039652 85 85 85
-1.750666 1.047337 0.546626 96 96 96
-1.942950 1.180867 0.039687 100 100 100
-1.896207 1.152459 0.116290 100 100 100
-1.876260 1.140336 0.192091 93 93 93
-1.871085 1.137190 0.268844 94 94 94
-1.814661 1.102898 0.336334 100 100 100
-1.803525 1.096130 0.410239 100 100 100
-1.979838 1.203287 -0.121419 85 85 85
-1.760217 1.069808 0.475547 100 100 100
-1.948076 1.183983 -0.039791 85 85 85
-1.738359 1.056523 0.545073 100 100 100
-1.937823 1.177752 0.039582 100 100 100
-1.909861 1.160757 0.117128 100 100 100
-1.879665 1.142405 0.192440 90 90 90
-1.867692 1.135128 0.268356 90 90 90
-1.834918 1.115209 0.340089 100 100 100
-1.798492 1.093071 0.409094 100 100 100
-1.986665 1.207436 -0.121838 87 87 87
-1.775204 1.078917 0.479596 100 100 100
-1.956620 1.189176 -0.039966 88 88 88
-1.741660 1.058530 0.546108 100 100 100
-1.922747 1.187049 0.039442 91 91 91
-1.911908 1.180357 0.117756 100 100 100
-1.875035 1.157593 0.192789 88 88 88
-1.852965 1.143968 0.267381 90 90 90
-1.837173 1.134218 0.341966 100 100 100
-1.795829 1.108694 0.410239 100 100 100
-1.976488 1.220227 -0.121733 90 90 90
-1.770945 1.093331 0.480495 100 100 100
-1.956778 1.208059 -0.040141 83 83 83
-1.750666 1.080811 0.551285 100 100 100
-1.941464 1.198605 0.039826 100 100 100
-1.900011 1.173013 0.117023 97 97 97
-1.885207 1.163873 0.193834 86 86 86
-1.859722 1.148139 0.268356 94 94 94
-1.838854 1.135256 0.342279 99 99 99
-1.802511 1.112819 0.411766 94 94 94
-1.983285 1.224424 -0.122152 90 90 90
-1.770945 1.093331 0.480495 100 100 100
-1.965286 1.213312 -0.040315 88 88 88
-1.750666 1.080811 0.551285 100 100 100
-1.933049 1.212130 0.039826 100 100 100
-1.895160 1.188371 0.117233 97 97 97
-1.883787 1.181239 0.194532 90 90 90
-1.861752 1.167422 0.269819 94 94 94
-1.830883 1.148066 0.342279 99 99 99
-1.811331 1.135806 0.415582 100 100 100
-1.986534 1.245667 -0.122885 87 87 87
-1.764920 1.106703 0.480945 100 100 100
-1.951685 1.223815 -0.040210 83 83 83
-1.749625 1.097112 0.553355 100 100 100
-1.939826 1.216379 0.039966 100 100 100
-1.905313 1.194737 0.117861 100 100 100
-1.877035 1.177006 0.193834 88 88 88
-1.878570 1.177968 0.272256 100 100 100
-1.832557 1.149115 0.342591 100 100 100
-1.811331 1.135806 0.415582 100 100 100
-1.993302 1.249911 -0.123304 87 87 87
-1.773175 1.111880 0.483195 100 100 100
-1.958462 1.228065 -0.040350 85 85 85
-1.749625 1.097112 0.553355 100 100 100
-1.931287 1.229892 0.039966 100 100 100
-1.912087 1.217665 0.118803 100 100 100
-1.872134 1.192221 0.194183 93 93 93
-1.873649 1.193186 0.272744 100 100 100
-1.836154 1.169308 0.344782 93 93 93
-1.803358 1.148423 0.415582 100 100 100
-1.994636 1.270234 -0.123932 87 87 87
-1.770301 1.127372 0.484545 100 100 100
-1.956588 1.246004 -0.040490 91 91 91
-1.741923 1.109300 0.553355 98 98 98
-1.929600 1.228818 0.039931 91 91 91
-1.922195 1.224102 0.119431 100 100 100
-1.887259 1.201853 0.195752 96 96 96
-1.868626 1.189988 0.272012 99 99 99
-1.844485 1.174614 0.346346 96 96 96
-2.149425 1.368807 -0.222944 1 1 1
-1.800046 1.146314 0.414819 100 100 100
-1.987897 1.265942 -0.123513 85 85 85
-1.775232 1.130512 0.485894 100 100 100
-1.968395 1.253523 -0.040734 92 92 92
-1.754959 1.117602 0.557496 100 100 100
-1.939883 1.253526 0.040315 94 94 94
-1.907325 1.232487 0.119012 100 100 100
-1.884267 1.217588 0.196275 93 93 93
-1.865694 1.205587 0.272744 100 100 100
-1.846608 1.193254 0.348223 100 100 100
-2.096790 1.354918 -0.218412 1 1 1
-1.799000 1.162489 0.416345 100 100 100
-1.992877 1.287771 -0.124350 85 85 85
-1.770969 1.144376 0.486794 100 100 100
-1.968435 1.271977 -0.040908 91 91 91
-1.753998 1.133410 0.559567 100 100 100
-1.946601 1.257868 0.040455 94 94 94
-1.909002 1.233571 0.119117 100 100 100
-1.895980 1.225157 0.197495 96 96 96
-1.877365 1.213128 0.274450 99 99 99
-1.841631 1.190037 0.347285 99 99 99
-2.043241 1.320315 -0.212834 1 1 1
-1.812191 1.171013 0.419398 100 100 100
-2.002942 1.294274 -0.124978 87 87 87
-1.767695 1.142261 0.485894 100 100 100
-1.963397 1.268721 -0.040804 88 88 88
-1.758866 1.136556 0.561120 96 96 96
-1.947804 1.278009 0.040664 94 94 94
-1.910363 1.253443 0.119745 100 100 100
-1.880718 1.233992 0.196798 96 96 96
-1.872170 1.228383 0.274937 99 99 99
-1.831627 1.201781 0.346972 96 96 96
-2.035640 1.335640 -0.213009 1 1 1
-1.810538 1.187944 0.420925 100 100 100
-2.003877 1.314800 -0.125606 81 81 81
-1.771083 1.162057 0.489044 100 100 100
-1.962851 1.287882 -0.040978 91 91 91
-1.749273 1.147747 0.560602 100 100 100
-1.946132 1.276912 0.040629 100 100 100
-1.923722 1.262208 0.120582 100 100 100
-1.879052 1.232899 0.196623 88 88 88
-1.885448 1.237095 0.276887 100 100 100
-1.846491 1.211534 0.349787 93 93 93
-2.045635 1.342198 -0.214055 1 1 1
-1.807255 1.185790 0.420161 100 100 100
-2.013897 1.321374 -0.126234 85 85 85
-1.777600 1.166333 0.490843 100 100 100
-1.964523 1.288979 -0.041013 88 88 88
-1.758965 1.154106 0.563708 98 98 98
-1.939060 1.291237 0.040664 94 94 94
-1.928385 1.284129 0.121419 100 100 100
-1.880567 1.252286 0.197669 90 90 90
-1.872027 1.246599 0.276156 100 100 100
-1.844778 1.228454 0.351039 89 89 89
-2.026501 1.349465 -0.213009 3 3 3
-1.795873 1.195888 0.419398 100 100 100
-1.998206 1.330623 -0.125816 83 83 83
-1.787463 1.190287 0.495792 100 100 100
-1.975677 1.315621 -0.041432 88 88 88
-1.754284 1.168194 0.564743 100 100 100
-1.945718 1.295671 0.040804 94 94 94
-1.921736 1.279701 0.121001 100 100 100
-1.890517 1.258912 0.198715 93 93 93
-1.880288 1.252101 0.277375 100 100 100
-1.851355 1.232834 0.352290 84 84 84
-2.041426 1.359404 -0.214577 1 1 1
-1.808946 1.204593 0.422451 100 100 100
-2.001531 1.332837 -0.126025 83 83 83
-1.784219 1.188127 0.494892 100 100 100
-1.970684 1.312296 -0.041327 85 85 85
-1.763932 1.174618 0.567849 100 100 100
-1.944678 1.315162 0.040978 86 86 86
-1.915838 1.295657 0.121210 100 100 100
-1.888061 1.276872 0.199412 90 90 90
-1.858125 1.256627 0.275425 91 91 91
-1.839213 1.243837 0.351665 91 91 91
-2.028346 1.371745 -0.214229 1 1 1
-1.816543 1.228505 0.426267 100 100 100
-2.008487 1.358315 -0.127072 79 79 79
-1.770828 1.197589 0.493543 100 100 100
-1.966212 1.329725 -0.041432 88 88 88
-1.765083 1.193704 0.570955 100 100 100
-1.951304 1.319643 0.041118 90 90 90
-1.922456 1.300133 0.121629 100 100 100
-1.884761 1.274640 0.199064 88 88 88
-1.882791 1.273308 0.279081 100 100 100
-1.845758 1.248263 0.352916 91 91 91
-2.051451 1.387371 -0.216669 1 1 1
-1.829553 1.237304 0.429320 100 100 100
-2.015104 1.362790 -0.127490 79 79 79
-1.786971 1.208506 0.498042 100 100 100
-1.971182 1.333086 -0.041537 85 85 85
-1.761883 1.191539 0.569920 100 100 100
-1.942277 1.332894 0.041118 86 86 86
-1.926736 1.322229 0.122466 100 100 100
-1.884255 1.293076 0.199935 96 96 96
-1.880627 1.290587 0.280056 100 100 100
-1.846992 1.267505 0.354793 91 91 91
-2.101100 1.441887 -0.222944 1 1 1
-1.814613 1.245285 0.427794 100 100 100
-2.012369 1.380995 -0.127909 75 75 75
-1.791557 1.229463 0.501641 100 100 100
-1.968657 1.350998 -0.041676 85 85 85
-1.763288 1.210063 0.573025 98 98 98
-1.950521 1.338552 0.041292 94 94 94
-1.936617 1.329010 0.123094 97 97 97
-1.885897 1.294204 0.200110 86 86 86
-1.878990 1.289464 0.279812 99 99 99
-1.853507 1.271975 0.356045 91 91 91
-2.068245 1.419340 -0.219458 1 1 1
-1.811376 1.243063 0.427031 100 100 100
-2.002488 1.374214 -0.127281 84 84 84
-1.801198 1.236079 0.504340 100 100 100
-1.978550 1.357787 -0.041886 83 83 83
-1.760103 1.207877 0.571990 98 98 98
-1.949332 1.357851 0.041467 86 86 86
-1.919097 1.336790 0.122571 89 89 89
-1.889895 1.316449 0.201504 88 88 88
-1.878087 1.308223 0.281031 100 100 100
-1.847823 1.287142 0.356671 93 93 93
-2.035397 1.417801 -0.217018 1 1 1
-1.812319 1.262411 0.429320 100 100 100
-2.002679 1.395010 -0.127909 75 75 75
-1.779732 1.239712 0.500741 100 100 100
-1.975586 1.376139 -0.042025 80 80 80
-1.770649 1.233385 0.578202 98 98 98
-1.954255 1.361280 0.041572 82 82 82
-1.925652 1.341356 0.122989 89 89 89
-1.899704 1.323281 0.202550 93 93 93
-1.887860 1.315031 0.282493 100 100 100
-1.841340 1.282626 0.355419 84 84 84
-2.035397 1.417801 -0.217018 1 1 1
-1.825207 1.271389 0.432373 97 97 97
-2.009234 1.399577 -0.128328 84 84 84
-1.787728 1.245282 0.502991 100 100 100
-1.975586 1.376139 -0.042025 83 83 83
-1.776990 1.237802 0.580272 98 98 98
-1.962665 1.387588 0.041956 100 100 100
-1.926026 1.361685 0.123618 92 92 92
-1.893673 1.338812 0.202899 99 99 99
-1.883496 1.331616 0.283224 99 99 99
-1.838792 1.300011 0.356671 84 84 84
-2.043345 1.444628 -0.218935 1 1 1
-1.822699 1.288633 0.433900 90 90 90
-2.015723 1.425099 -0.129374 79 79 79
-1.790129 1.265607 0.506140 100 100 100
-1.969196 1.392206 -0.042095 80 80 80
-1.763573 1.246832 0.578719 96 96 96
-1.956134 1.382971 0.041816 90 90 90
-1.935811 1.368603 0.124246 92 92 92
-1.895300 1.339962 0.203073 96 96 96
-1.893222 1.338492 0.284687 100 100 100
-1.845244 1.304573 0.357922 91 91 91
-2.067748 1.461881 -0.221550 1 1 1
-1.822699 1.288633 0.433900 90 90 90
-2.018984 1.427405 -0.129584 79 79 79
-1.804450 1.275732 0.510189 100 100 100
-1.982259 1.401441 -0.042374 80 80 80
-1.768305 1.250178 0.580272 100 100 100
-1.952930 1.401256 0.041956 90 90 90
-1.939192 1.391399 0.125083 95 95 95
-1.897231 1.361291 0.204293 90 90 90
-1.877380 1.347048 0.283712 99 99 99
-1.848931 1.326636 0.360425 91 91 91
-2.070443 1.485573 -0.222944 1 1 1
-1.810468 1.299038 0.433136 93 93 93
-2.008970 1.441466 -0.129584 79 79 79
-1.801833 1.292842 0.511989 97 97 97
-1.982175 1.422240 -0.042584 78 78 78
-1.772091 1.271502 0.584413 98 98 98
-1.962679 1.408251 0.042165 100 100 100
-1.935946 1.389070 0.124874 95 95 95
-1.906944 1.368261 0.205339 90 90 90
-1.887057 1.353991 0.285174 100 100 100
-1.852141 1.328939 0.361051 91 91 91
-2.070443 1.485573 -0.222944 1 1 1
-1.816848 1.303616 0.434663 88 88 88
-2.012216 1.443794 -0.129793 81 81 81
-1.795500 1.288298 0.510189 99 99 99
-1.995173 1.431566 -0.042863 73 73 73
-1.779939 1.277133 0.587002 96 96 96
-1.964365 1.429815 0.042409 98 98 98
-1.923217 1.399865 0.124664 92 92 92
-1.907251 1.388244 0.206385 90 90 90
-1.882612 1.370309 0.285905 100 100 100
-1.843053 1.341515 0.361051 91 91 91
-1.820631 1.325195 0.437716 90 90 90
-2.015260 1.466861 -0.130631 79 79 79
-1.792991 1.305077 0.511989 97 97 97
-1.978916 1.440407 -0.042723 78 78 78
-1.777453 1.293766 0.589072 94 94 94
-1.974065 1.436876 0.042619 98 98 98
-1.939365 1.411618 0.125711 95 95 95
-1.904030 1.385899 0.206036 88 88 88
-1.892241 1.377318 0.287368 100 100 100
-1.844650 1.342678 0.361364 96 96 96
-1.093770 0.796130 -0.118357 1 1 1
-1.830155 1.332127 0.440006 90 90 90
-2.018489 1.469211 -0.130840 79 79 79
-1.802445 1.311958 0.514688 100 100 100
-1.985383 1.445114 -0.042863 73 73 73
-1.774329 1.291493 0.588037 94 94 94
-1.963733 1.450965 0.042619 98 98 98
-1.938852 1.432581 0.126339 95 95 95
-1.897269 1.401856 0.206385 88 88 88
-1.891917 1.397902 0.288830 100 100 100
-1.844527 1.362887 0.363241 96 96 96
-1.820576 1.345189 0.440006 88 88 88
-2.014350 1.488365 -0.131259 77 77 77
-1.802415 1.331770 0.517387 92 92 92
-1.987857 1.468791 -0.043142 69 69 69
-1.768149 1.306452 0.589072 94 94 94
-1.963733 1.450965 0.042619 98 98 98
-1.948490 1.439702 0.126967 100 100 100
-1.910088 1.411328 0.207779 86 86 86
-1.888723 1.395542 0.288343 100 100 100
-1.854060 1.369930 0.365118 96 96 96
-1.820576 1.345189 0.440006 90 90 90
-2.017562 1.490739 -0.131468 75 75 75
-1.807116 1.335244 0.518737 90 90 90
-1.991074 1.471167 -0.043212 76 76 76
-1.777472 1.313341 0.592178 94 94 94
-1.967955 1.475435 0.042933 100 100 100
-1.935195 1.450874 0.126758 95 95 95
-1.909753 1.431800 0.208825 81 81 81
-1.880523 1.409885 0.288587 96 96 96
-1.852353 1.388765 0.366682 91 91 91
-1.040959 0.780438 -0.113825 1 1 1
-1.820565 1.364933 0.442295 80 80 80
-2.016694 1.511976 -0.132096 83 83 83
-1.791514 1.343152 0.516938 90 90 90
-1.993555 1.494628 -0.043491 78 78 78
-1.780625 1.334988 0.596319 85 85 85
-1.979155 1.483832 0.043177 98 98 98
-1.938391 1.453270 0.126967 98 98 98
-1.919318 1.438971 0.209871 86 86 86
-1.891641 1.418220 0.290293 100 100 100
-1.847612 1.385210 0.365744 96 96 96
-1.034583 0.775658 -0.113128 1 1 1
-1.829990 1.371999 0.444585 90 90 90
-2.026282 1.519165 -0.132724 83 83 83
-1.796192 1.346659 0.518287 92 92 92
-1.990355 1.492229 -0.043422 73 73 73
-1.779079 1.333829 0.595801 92 92 92
-1.975114 1.502456 0.043317 94 94 94
-1.940915 1.476441 0.127804 95 95 95
-1.909225 1.452335 0.209871 81 81 81
-1.888014 1.436199 0.291268 91 91 91
-1.847329 1.405251 0.367621 96 96 96
-1.057686 0.804574 -0.116266 1 1 1
-1.832868 1.394250 0.447638 93 93 93
-2.018806 1.535692 -0.132933 79 79 79
-1.792950 1.363885 0.520087 87 87 87
-1.983072 1.508509 -0.043491 76 76 76
-1.768187 1.345048 0.595284 89 89 89
-1.971931 1.500034 0.043247 98 98 98
-1.950453 1.483696 0.128432 92 92 92
-1.912397 1.454747 0.210220 84 84 84
-1.892753 1.439805 0.291999 82 82 82
-1.858335 1.413622 0.369811 91 91 91
-1.073543 0.816637 -0.118009 1 1 1
-1.829743 1.391873 0.446875 90 90 90
-2.034702 1.547784 -0.133980 77 77 77
-1.800705 1.369784 0.522336 90 90 90
-1.995804 1.518194 -0.043771 85 85 85
-1.774337 1.349726 0.597354 84 84 84
-1.966425 1.517086 0.043352 90 90 90
-1.946634 1.501818 0.128851 98 98 98
-1.911915 1.475033 0.211266 77 77 77
-1.879766 1.450230 0.291511 86 86 86
-1.858053 1.433479 0.371688 84 84 84
-1.079002 0.832444 -0.119229 1 1 1
-1.820226 1.404295 0.446875 85 85 85
-2.020957 1.559158 -0.133771 75 75 75
-1.800597 1.389152 0.525036 84 84 84
-2.001257 1.543959 -0.044120 93 93 93
-1.772756 1.367672 0.599943 92 92 92
-1.975924 1.524415 0.043561 90 90 90
-1.943471 1.499378 0.128642 98 98 98
-1.919803 1.481118 0.212137 81 81 81
-1.887624 1.456292 0.292730 91 91 91
-1.873694 1.445545 0.374817 84 84 84
-1.064804 0.821491 -0.117660 1 1 1
-1.829553 1.411490 0.449164 93 93 93
-2.027283 1.564038 -0.134189 69 69 69
-1.794426 1.384390 0.523236 94 94 94
-2.007590 1.548845 -0.044259 90 90 90
-1.777345 1.371213 0.601495 91 91 91
-1.979676 1.548920 0.043875 94 94 94
-1.942658 1.519956 0.129270 95 95 95
-1.922230 1.503973 0.213532 88 88 88
-1.888612 1.477670 0.294436 86 86 86
-1.854476 1.450962 0.372940 80 80 80
-1.832272 1.433589 0.452217 93 93 93
-2.029174 1.587647 -0.135027 67 67 67
-1.789565 1.400175 0.524586 90 90 90
-1.993851 1.560010 -0.044189 85 85 85
-1.780142 1.392802 0.605637 94 94 94
-1.987551 1.555081 0.044050 86 86 86
-1.952096 1.527341 0.129898 92 92 92
-1.923799 1.505201 0.213706 93 93 93
-1.897992 1.485009 0.295899 96 96 96
-1.860699 1.455831 0.374191 82 82 82
-2.066594 1.616925 -0.229568 10 10 10
-1.838457 1.438428 0.453744 96 96 96
-2.041758 1.597493 -0.135864 67 67 67
-1.800309 1.408581 0.527735 94 94 94
-1.997001 1.562474 -0.044259 90 90 90
-1.775578 1.389231 0.604084 100 100 100
-1.973514 1.566432 0.043980 86 86 86
-1.953901 1.550865 0.130735 92 92 92
-1.907002 1.513640 0.213009 84 84 84
-1.898463 1.506862 0.297605 91 91 91
-1.862868 1.478610 0.376694 79 79 79
-1.825295 1.448787 0.452981 88 88 88
-2.036813 1.616674 -0.136283 65 65 65
-1.798063 1.427172 0.529985 88 88 88
-1.998574 1.586323 -0.044539 87 87 87
-1.767349 1.402794 0.604601 95 95 95
-1.979779 1.571405 0.044120 86 86 86
-1.963287 1.558315 0.131363 92 92 92
-1.916365 1.521072 0.214055 79 79 79
-1.895353 1.504394 0.297117 100 100 100
-1.872152 1.485978 0.378571 77 77 77
-1.084588 0.860867 -0.121146 1 1 1
-1.831446 1.453669 0.454507 90 90 90
-2.044635 1.622883 -0.136806 44 44 44
-1.808748 1.435653 0.533134 94 94 94
-2.014237 1.598755 -0.044888 93 93 93
-1.777941 1.411201 0.608225 100 100 100
-1.981221 1.595221 0.044399 86 86 86
-1.946138 1.566973 0.130945 89 89 89
-1.922770 1.548158 0.215972 84 84 84
-1.889443 1.521324 0.297849 96 96 96
-1.870964 1.506445 0.380449 74 74 74
-1.080103 0.869668 -0.121321 2 2 2
-1.830428 1.473807 0.456797 93 93 93
-2.041033 1.643380 -0.137330 42 42 42
-1.797163 1.447023 0.532684 92 92 92
-2.006142 1.615287 -0.044957 82 82 82
-1.775569 1.429637 0.610813 97 97 97
-1.992124 1.604000 0.044643 78 78 78
-1.952360 1.571984 0.131363 89 89 89
-1.932082 1.555656 0.217018 88 88 88
-1.900266 1.530039 0.299555 100 100 100
-1.864809 1.501490 0.379197 77 77 77
-1.064585 0.857172 -0.119578 5 5 5
-1.839603 1.481194 0.459086 88 88 88
-2.055034 1.654654 -0.138272 19 19 19
-1.801717 1.450690 0.534034 84 84 84
-2.003027 1.612778 -0.044888 85 85 85
-1.783093 1.435694 0.613401 92 92 92
-1.985523 1.621663 0.044748 71 71 71
-1.953714 1.595682 0.132201 89 89 89
-1.927346 1.574147 0.217715 88 88 88
-1.904913 1.555825 0.301992 100 100 100
-1.863461 1.521969 0.381074 74 74 74
-1.053945 0.860803 -0.119055 6 6 6
-1.838341 1.501452 0.461376 93 93 93
-2.037245 1.663906 -0.137853 30 30 30
-1.793055 1.464465 0.534484 87 87 87
-2.004109 1.636842 -0.045167 82 82 82
-1.780508 1.454218 0.615989 99 99 99
-1.987072 1.622928 0.044783 78 78 78
-1.962995 1.603263 0.132829 82 82 82
-1.916545 1.565325 0.216495 84 84 84
-1.911063 1.560848 0.302967 100 100 100
-1.872641 1.529467 0.382952 79 79 79
-1.838341 1.501452 0.461376 90 90 90
-2.048073 1.672750 -0.138586 48 48 48
-1.809657 1.478025 0.539433 84 84 84
-2.013401 1.644432 -0.045376 85 85 85
-1.777515 1.451774 0.614954 100 100 100
-1.980313 1.640588 0.044888 71 71 71
-1.964058 1.627121 0.133666 79 79 79
-1.914776 1.586293 0.217541 81 81 81
-1.894005 1.569086 0.301992 100 100 100
-1.871045 1.550064 0.384829 77 77 77
-2.088149 1.729924 -0.237238 73 73 73
-1.824790 1.511745 0.460613 90 90 90
-2.045574 1.694653 -0.139214 35 35 35
-1.806798 1.496839 0.541682 87 87 87
-2.017271 1.671205 -0.045725 85 85 85
-1.779238 1.474007 0.619095 100 100 100
-1.986473 1.645691 0.045027 71 71 71
-1.962520 1.625847 0.133561 76 76 76
-1.930118 1.599004 0.219284 88 88 88
-1.900120 1.574151 0.302967 100 100 100
-1.877129 1.555105 0.386080 79 79 79
-2.097354 1.737550 -0.238284 70 70 70
-1.836885 1.521765 0.463666 88 88 88
-2.048650 1.697201 -0.139423 68 68 68
-1.805297 1.495596 0.541232 94 94 94
-2.029590 1.681411 -0.046005 82 82 82
-1.791139 1.483867 0.623236 100 100 100
-1.987766 1.669116 0.045306 74 74 74
-1.957812 1.643965 0.133980 73 73 73
-1.931678 1.622019 0.220678 86 86 86
-1.901800 1.596931 0.304917 100 100 100
-1.866774 1.567520 0.386080 79 79 79
-2.091888 1.756547 -0.238981 68 68 68
-1.847801 1.551589 0.469009 88 88 88
-2.052644 1.723594 -0.140470 71 71 71
-1.802800 1.513802 0.543482 88 88 88
-2.015331 1.692263 -0.045935 82 82 82
-1.787176 1.500682 0.625307 97 97 97
-1.996954 1.676832 0.045516 74 74 74
-1.963931 1.649102 0.134399 76 76 76
-1.930152 1.620738 0.220504 87 87 87
-1.907880 1.602037 0.305892 100 100 100
-1.875851 1.575142 0.387957 77 77 77
-2.097991 1.761672 -0.239678 70 70 70
-1.853815 1.556638 0.470535 82 82 82
-2.058762 1.728732 -0.140888 69 69 69
-1.813247 1.522574 0.546631 82 82 82
-2.021457 1.697407 -0.046074 79 79 79
-1.781259 1.495713 0.623236 87 87 87
-1.983677 1.689436 0.045481 82 82 82
-1.964534 1.673133 0.135236 76 76 76
-1.924857 1.639341 0.221201 87 87 87
-1.905717 1.623040 0.307354 91 91 91
-1.870824 1.593323 0.389209 79 79 79
-2.088675 1.778859 -0.240027 68 68 68
-1.842902 1.569542 0.470535 85 85 85
-2.058808 1.753422 -0.141726 67 67 67
-1.814442 1.545304 0.550230 82 82 82
-2.024782 1.724443 -0.046423 75 75 75
-1.782539 1.518133 0.627377 90 90 90
-1.992811 1.697215 0.045690 82 82 82
-1.975178 1.682197 0.135969 79 79 79
-1.940026 1.652259 0.222944 87 87 87
-1.904206 1.621753 0.307111 96 96 96
-1.879848 1.601007 0.391086 77 77 77
-2.099293 1.787902 -0.241247 64 64 64
-1.842902 1.569542 0.470535 82 82 82
-2.055766 1.750832 -0.141516 69 69 69
-1.823344 1.552885 0.552930 82 82 82
-2.033916 1.732223 -0.046633 75 75 75
-1.791364 1.525648 0.630483 85 85 85
-1.994534 1.722851 0.046005 86 86 86
-1.963386 1.695946 0.135969 82 82 82
-1.935982 1.672275 0.223816 85 85 85
-1.895842 1.637602 0.307598 96 96 96
-0.946419 0.817504 -0.153555 1 1 1
-1.880584 1.624422 0.393589 82 82 82
-2.101838 1.815538 -0.242990 61 61 61
-1.840814 1.590070 0.472825 80 80 80
-2.052562 1.772975 -0.142144 69 69 69
-1.812458 1.565576 0.552930 82 82 82
-2.030853 1.754223 -0.046842 72 72 72
-1.795289 1.550746 0.635660 83 83 83
-2.003614 1.730694 0.046214 86 86 86
-1.969432 1.701168 0.136388 85 85 85
-1.945029 1.680089 0.224862 85 85 85
-1.912367 1.651876 0.310279 91 91 91
-0.946419 0.817504 -0.153555 1 1 1
-1.877594 1.621840 0.392963 79 79 79
-2.113900 1.825957 -0.244385 64 64 64
-1.858643 1.605470 0.477404 90 90 90
-2.061631 1.780808 -0.142772 69 69 69
-1.815407 1.568124 0.553829 78 78 78
-2.030853 1.754223 -0.046842 79 79 79
-1.798213 1.553271 0.636695 85 85 85
-1.999309 1.750879 0.046388 82 82 82
-1.969827 1.725061 0.137225 85 85 85
-1.930550 1.690664 0.224513 85 85 85
-1.914519 1.676625 0.312473 86 86 86
-0.952780 0.834389 -0.155505 1 1 1
-1.872455 1.639788 0.394215 79 79 79
-2.096925 1.836366 -0.243862 59 59 59
-1.850626 1.620671 0.478167 86 86 86
-2.064487 1.807958 -0.143819 71 71 71
-1.810556 1.585580 0.555629 80 80 80
-2.027892 1.775910 -0.047052 74 74 74
-1.787598 1.565475 0.636695 85 85 85
-2.003822 1.754831 0.046493 86 86 86
-1.981847 1.735587 0.138062 89 89 89
-1.936546 1.695915 0.225210 85 85 85
-1.920493 1.681857 0.313448 82 82 82
-0.972194 0.851391 -0.158674 4 4 4
-1.884344 1.650200 0.396718 77 77 77
-2.107417 1.845554 -0.245082 61 61 61
-1.847672 1.618084 0.477404 86 86 86
-2.070497 1.813222 -0.144238 69 69 69
-1.828148 1.600986 0.561028 73 73 73
-2.039927 1.786450 -0.047331 75 75 75
-1.787598 1.565475 0.636695 87 87 87
-1.990027 1.767450 0.046458 78 78 78
-1.975656 1.754686 0.138481 79 79 79
-1.945514 1.727916 0.227651 78 78 78
-1.908705 1.695223 0.313448 82 82 82
-0.975131 0.866067 -0.160136 6 6 6
-1.881639 1.671185 0.398595 79 79 79
-2.103420 1.868160 -0.246128 61 61 61
-1.842202 1.636159 0.478931 84 84 84
-2.057788 1.827632 -0.144238 67 67 67
-1.819841 1.616298 0.561928 73 73 73
-2.036376 1.808615 -0.047540 82 82 82
-1.791070 1.590745 0.641871 83 83 83
-2.007969 1.783385 0.046877 82 82 82
-1.975656 1.754686 0.138481 85 85 85
-1.951473 1.733208 0.228348 78 78 78
-0.688261 0.611281 -0.145797 4 4 4
-1.908705 1.695223 0.313448 82 82 82
-0.972163 0.863430 -0.159649 9 9 9
-1.893455 1.681679 0.401098 82 82 82
-2.116827 1.880068 -0.247697 59 59 59
-1.851010 1.643981 0.481220 90 90 90
-2.069735 1.838243 -0.145075 65 65 65
-1.819841 1.616298 0.561928 73 73 73
-2.039366 1.811271 -0.047610 77 77 77
-1.796847 1.595877 0.643942 90 90 90
-2.004384 1.805389 0.047087 82 82 82
-1.972262 1.776456 0.139109 82 82 82
-1.948208 1.754790 0.229394 78 78 78
-0.683976 0.616071 -0.145797 4 4 4
-1.914523 1.724449 0.316373 78 78 78
-0.961686 0.866210 -0.158918 16 16 16
-1.878733 1.692213 0.400472 79 79 79
-2.114013 1.904134 -0.248917 61 61 61
-1.848240 1.664747 0.483510 92 92 92
-2.068723 1.863341 -0.145913 63 63 63
-1.811409 1.631572 0.562828 82 82 82
-2.032615 1.830817 -0.047750 85 85 85
-1.794275 1.616140 0.647048 87 87 87
-2.011813 1.812081 0.047261 74 74 74
-1.981166 1.784476 0.139737 82 82 82
-1.946728 1.753457 0.229220 76 76 76
-1.923373 1.732421 0.317835 74 74 74
-0.946937 0.852925 -0.156480 45 45 45
-1.881669 1.694857 0.401098 77 77 77
-2.114013 1.904134 -0.248917 66 66 66
-1.856993 1.672631 0.485800 90 90 90
-2.083563 1.876707 -0.146959 63 63 63
-1.820096 1.639398 0.565527 84 84 84
-2.035587 1.833494 -0.047820 79 79 79
-1.794275 1.616140 0.647048 76 76 76
-2.000590 1.827430 0.047296 78 78 78
-1.977508 1.806346 0.140365 79 79 79
-1.941794 1.773723 0.230091 78 78 78
-0.679659 0.620831 -0.145797 4 4 4
-1.914163 1.748484 0.318323 74 74 74
-0.952684 0.870225 -0.158430 92 92 92
-1.878542 1.715945 0.402975 74 74 74
-2.115379 1.932283 -0.250660 66 66 66
-1.845270 1.685554 0.485800 84 84 84
-2.076309 1.896596 -0.147378 59 59 59
-1.817240 1.659950 0.568226 92 92 92
-2.040454 1.863844 -0.048238 77 77 77
-1.782948 1.628626 0.647048 85 85 85
-2.007973 1.834174 0.047471 71 71 71
-1.989305 1.817122 0.141202 79 79 79
-1.949149 1.780442 0.230963 73 73 73
-1.915629 1.749822 0.318566 72 72 72
-0.954150 0.871564 -0.158674 100 100 100
-1.896043 1.731933 0.406730 74 74 74
-2.122734 1.939002 -0.251531 57 57 57
-1.848169 1.688202 0.486563 86 86 86
-2.079259 1.899290 -0.147587 59 59 59
-1.828751 1.670464 0.571826 87 87 87
-2.046360 1.869239 -0.048378 77 77 77
-1.794359 1.639050 0.651189 85 85 85
-2.009789 1.861736 0.047820 71 71 71
-1.979501 1.833680 0.141412 85 85 85
-1.952750 1.808900 0.232880 82 82 82
-0.710088 0.657779 -0.153306 2 2 2
-1.907735 1.767200 0.319298 74 74 74
-0.921829 0.853922 -0.154287 83 83 83
-1.892601 1.753182 0.408607 72 72 72
-2.125224 1.968668 -0.253449 66 66 66
-1.847861 1.711737 0.489616 92 92 92
-2.074740 1.921903 -0.148215 57 57 57
-1.811326 1.677893 0.570026 92 92 92
-2.044997 1.894351 -0.048657 77 77 77
-1.797045 1.664665 0.656365 85 85 85
-2.021525 1.872608 0.048099 69 69 69
-1.982432 1.836395 0.141621 82 82 82
-1.954212 1.810254 0.233054 76 76 76
-0.741969 0.687312 -0.160189 1 1 1
-1.922298 1.780690 0.321735 74 74 74
-0.917460 0.849875 -0.153555 57 57 57
-1.895499 1.755866 0.409233 72 72 72
-2.138378 1.980853 -0.255018 59 59 59
-1.859383 1.722410 0.492669 90 90 90
-2.092322 1.938190 -0.149471 65 65 65
-1.822763 1.688488 0.573625 87 87 87
-2.047931 1.897069 -0.048727 74 74 74
-1.799880 1.667291 0.657400 78 78 78
-2.017147 1.894890 0.048308 71 71 71
-1.985576 1.865232 0.142772 76 76 76
-1.941526 1.823852 0.233054 73 73 73
-0.781785 0.734402 -0.169888 1 1 1
-1.918500 1.802222 0.323197 82 82 82
-0.912952 0.857618 -0.153799 33 33 33
-1.891834 1.777171 0.411110 70 70 70
-2.123045 1.994370 -0.254843 66 66 66
-1.855898 1.743414 0.494959 90 90 90
-2.084563 1.958220 -0.149890 61 61 61
-1.816612 1.706509 0.575425 90 90 90
-2.043382 1.919534 -0.048937 77 77 77
-1.791012 1.682461 0.658436 83 83 83
-2.017147 1.894890 0.048308 67 67 67
-1.995765 1.874804 0.143505 79 79 79
-1.957500 1.838858 0.234972 82 82 82
-0.839375 0.788501 -0.182403 3 3 3
-1.927181 1.810377 0.324660 78 78 78
-0.911505 0.856259 -0.153555 15 15 15
-1.900472 1.785286 0.412987 67 67 67
-2.131758 2.002554 -0.255889 64 64 64
-1.855898 1.743414 0.494959 92 92 92
-2.096209 1.969160 -0.150728 63 63 63
-1.827974 1.717183 0.579024 90 90 90
-2.055042 1.930488 -0.049216 77 77 77
-1.793828 1.685106 0.659471 90 90 90
-2.011443 1.915471 0.048483 63 63 63
-1.995975 1.900741 0.144447 73 73 73
-1.950709 1.857635 0.235669 82 82 82
-0.855446 0.814631 -0.187096 6 6 6
-1.910501 1.819346 0.323929 69 69 69
-0.912843 0.869289 -0.154774 2 2 2
-1.899720 1.809079 0.415490 65 65 65
-2.129621 2.028010 -0.257284 64 64 64
-1.849675 1.761422 0.496485 92 92 92
-2.085649 1.986137 -0.150937 65 65 65
-1.824711 1.737649 0.581723 84 84 84
-2.059231 1.960979 -0.049635 72 72 72
-1.793509 1.707935 0.663612 87 87 87
-2.023028 1.926504 0.048762 61 61 61
-1.993082 1.897987 0.144238 71 71 71
-1.968023 1.874123 0.237761 82 82 82
-0.865460 0.824166 -0.189286 5 5 5
-1.916251 1.824822 0.324904 72 72 72
-1.908303 1.817253 0.417367 70 70 70
-2.146935 2.044498 -0.259375 61 61 61
-1.861049 1.772253 0.499538 90 90 90
-2.091435 1.991646 -0.151356 63 63 63
-1.824711 1.737649 0.581723 84 84 84
-2.070816 1.972012 -0.049914 72 72 72
-1.807498 1.721258 0.668788 90 90 90
-2.025352 1.955860 0.049146 69 69 69
-1.991277 1.922954 0.145075 68 68 68
-1.957758 1.890585 0.238109 85 85 85
-0.871053 0.841166 -0.191789 5 5 5
-1.913461 1.847808 0.326610 82 82 82
-2.190484 2.115326 -0.373895 88 88 88
-1.892728 1.827786 0.416741 65 65 65
-2.142641 2.069125 -0.260596 57 57 57
-1.859929 1.796113 0.502591 84 84 84
-2.091847 2.020073 -0.152402 65 65 65
-1.823750 1.761175 0.585323 90 90 90
-2.059875 1.989199 -0.049984 70 70 70
-1.803776 1.741886 0.671894 85 85 85
-2.036860 1.966973 0.049425 69 69 69
-1.999897 1.931279 0.145703 68 68 68
-1.956325 1.889201 0.237935 76 76 76
-0.872474 0.842538 -0.192102 4 4 4
-1.933452 1.867113 0.330022 85 85 85
-2.193340 2.118084 -0.374383 67 67 67
-1.899833 1.834647 0.418306 61 61 61
-2.146941 2.073277 -0.261119 55 55 55
-1.874052 1.809751 0.506407 90 90 90
-2.103340 2.031172 -0.153240 63 63 63
-1.834964 1.772005 0.588922 90 90 90
-2.068506 1.997533 -0.050193 74 74 74
-1.806555 1.744570 0.672930 90 90 90
-0.826773 0.809636 -0.310065 0 0 0
-2.020221 1.978347 0.049355 67 67 67
-1.997782 1.956373 0.146541 71 71 71
-1.955900 1.915359 0.239504 78 78 78
-0.862336 0.844462 -0.191163 1 1 1
-1.926044 1.886121 0.330997 82 82 82
-2.196938 2.151400 -0.377551 68 68 68
-1.895447 1.856158 0.420183 63 63 63
-2.140956 2.096579 -0.262164 61 61 61
-1.861372 1.822790 0.506407 84 84 84
-2.103379 2.059781 -0.154286 67 67 67
-1.833688 1.795679 0.592521 84 84 84
-2.065940 2.023118 -0.050472 65 65 65
-1.799853 1.762546 0.675000 87 87 87
-0.815731 0.798823 -0.305924 0 0 0
-2.031651 1.989539 0.049635 71 71 71
-2.009198 1.967552 0.147378 71 71 71
-1.967288 1.926511 0.240898 78 78 78
-0.862336 0.844462 -0.191163 1 1 1
-1.921789 1.881955 0.330266 75 75 75
-2.204029 2.158345 -0.378770 65 65 65
-1.905326 1.865833 0.422373 70 70 70
-2.152344 2.107731 -0.263559 59 59 59
-1.864177 1.825537 0.507170 86 86 86
-2.103379 2.059781 -0.154286 63 63 63
-1.850395 1.812041 0.597920 87 87 87
-2.067369 2.024517 -0.050507 70 70 70
-1.810895 1.773359 0.679141 78 78 78
-0.795056 0.789524 -0.300230 0 0 0
-2.033320 2.019174 0.050019 78 78 78
-1.992578 1.978716 0.147169 73 73 73
-1.970755 1.957045 0.242990 70 70 70
-0.849412 0.843502 -0.189599 1 1 1
-1.921280 1.907914 0.332460 85 85 85
-2.195950 2.180673 -0.379989 68 68 68
-1.903467 1.890225 0.424876 65 65 65
-2.151714 2.136745 -0.265302 60 60 60
-1.865318 1.852341 0.510986 84 84 84
-2.097451 2.082859 -0.154914 65 65 65
-1.834934 1.822169 0.597020 82 82 82
-2.065955 2.051582 -0.050821 70 70 70
-1.806695 1.794126 0.682247 78 78 78
-0.811505 0.805859 -0.306442 0 0 0
-2.040415 2.026219 0.050193 71 71 71
-1.998247 1.984345 0.147587 68 68 68
-1.976410 1.962660 0.243687 70 70 70
-0.856420 0.850462 -0.191163 1 1 1
-1.936775 1.923300 0.335141 80 80 80
-2.200176 2.184869 -0.380720 67 67 67
-1.906271 1.893008 0.425502 72 72 72
-2.158783 2.143764 -0.266174 64 64 64
-1.882035 1.868941 0.515566 82 82 82
-2.117292 2.102562 -0.156380 63 63 63
-1.837700 1.824915 0.597920 82 82 82
-2.074469 2.060037 -0.051031 68 68 68
-1.820403 1.807738 0.687423 75 75 75
-0.801916 0.807253 -0.304889 0 0 0
-2.035031 2.048573 0.050403 74 74 74
-2.000177 2.013487 0.148739 79 79 79
-1.963005 1.976068 0.243687 68 68 68
-0.861749 0.867483 -0.193666 1 1 1
-1.934831 1.947706 0.337091 80 80 80
-2.199243 2.213878 -0.383157 65 65 65
-1.898910 1.911546 0.426753 70 70 70
-2.152566 2.166890 -0.267220 64 64 64
-1.872037 1.884494 0.516329 78 78 78
-2.111377 2.125426 -0.157008 57 57 57
-1.838970 1.851207 0.602419 79 79 79
-2.066036 2.079784 -0.051170 70 70 70
-1.810779 1.822829 0.688459 76 76 76
-0.792386 0.797659 -0.301265 0 0 0
-2.035031 2.048573 0.050403 71 71 71
-2.012846 2.026240 0.149681 71 71 71
-1.974238 1.987376 0.245082 70 70 70
-0.854788 0.860476 -0.192102 4 4 4
-1.948821 1.961789 0.339528 80 80 80
-2.217430 2.232186 -0.386326 63 63 63
-1.907263 1.919954 0.428630 70 70 70
-2.162395 2.176784 -0.268440 61 61 61
-1.874804 1.887280 0.517092 74 74 74
-2.128268 2.142430 -0.158264 57 57 57
-1.847210 1.859502 0.605118 73 73 73
-2.080129 2.093971 -0.051520 68 68 68
-1.816225 1.828311 0.690529 83 83 83
-0.804229 0.821252 -0.307995 0 0 0
-2.031513 2.074513 0.050682 69 69 69
-0.785354 0.801977 -0.259144 1 1 1
-2.009474 2.052007 0.150518 73 73 73
-1.971119 2.012840 0.246476 70 70 70
-0.865194 0.883507 -0.195856 16 16 16
-1.929177 1.970011 0.338553 80 80 80
-2.213901 2.260761 -0.388519 65 65 65
-1.907296 1.947667 0.431759 70 70 70
-2.156521 2.202167 -0.269660 66 66 66
-1.869493 1.909063 0.519382 74 74 74
-2.119869 2.164739 -0.158787 54 54 54
-1.847491 1.886596 0.609617 73 73 73
-2.076285 2.120232 -0.051799 70 70 70
-1.808502 1.846781 0.692600 80 80 80
-0.796119 0.812970 -0.304889 0 0 0
-2.045504 2.088800 0.051031 69 69 69
-0.777173 0.793623 -0.256444 1 1 1
-2.012269 2.054861 0.150728 71 71 71
-1.983665 2.025652 0.248045 64 64 64
-0.867958 0.886329 -0.196482 52 52 52
-1.941677 1.982775 0.340747 70 70 70
-2.218067 2.265016 -0.389251 68 68 68
-1.915589 1.956135 0.433636 65 65 65
-2.170461 2.216402 -0.271403 64 64 64
-1.874987 1.914674 0.520909 74 74 74
-2.125459 2.170447 -0.159206 54 54 54
-1.842037 1.881026 0.607818 75 75 75
-2.087477 2.131662 -0.052078 70 70 70
-1.819315 1.857824 0.696741 83 83 83
-0.775803 0.803087 -0.299195 0 0 0
-2.045132 2.117057 0.051380 67 67 67
-0.777169 0.804501 -0.258244 1 1 1
-2.006561 2.077130 0.151356 71 71 71
-1.980905 2.050571 0.249440 73 73 73
-0.877002 0.907845 -0.199923 81 81 81
-1.947445 2.015934 0.344159 75 75 75
-2.217770 2.295766 -0.391932 102 102 102
-1.902229 1.969128 0.433636 74 74 74
-2.167783 2.244021 -0.272972 68 68 68
-1.875552 1.941512 0.524725 74 74 74
-2.127288 2.202102 -0.160462 56 56 56
-1.840023 1.904734 0.611417 69 69 69
-2.075698 2.148698 -0.052148 74 74 74
-1.817365 1.881279 0.700882 70 70 70
-0.763723 0.790582 -0.294536 0 0 0
-2.060415 2.132877 0.051764 65 65 65
-0.792063 0.819918 -0.263193 1 1 1
-2.020438 2.091494 0.152402 68 68 68
-1.979521 2.049138 0.249265 65 65 65
-0.885237 0.916369 -0.201800 100 100 100
-1.957099 2.025928 0.345865 77 77 77
-2.237079 2.315754 -0.395344 121 121 121
-1.913209 1.980494 0.436139 70 70 70
-2.166398 2.242588 -0.272797 64 64 64
-1.883736 1.949984 0.527014 76 76 76
-2.137002 2.212157 -0.161195 57 57 57
-1.848146 1.913143 0.614116 77 77 77
-2.089592 2.163080 -0.052497 76 76 76
-1.813338 1.877111 0.699329 82 82 82
-0.756853 0.794496 -0.294018 0 0 0
-2.045475 2.147210 0.051764 63 63 63
-0.786319 0.825428 -0.263193 1 1 1
-2.019564 2.120010 0.153449 71 71 71
-1.974786 2.073005 0.250486 76 76 76
-0.873368 0.916806 -0.200549 100 100 100
-1.955231 2.052477 0.348059 83 83 83
-2.215381 2.325566 -0.394369 102 102 102
-1.912961 2.008105 0.439268 65 65 65
-2.167180 2.274968 -0.274889 66 66 66
-1.875493 1.968774 0.528541 86 86 86
-2.132527 2.238591 -0.162032 59 59 59
-1.840122 1.931643 0.615916 73 73 73
-2.093750 2.197886 -0.052986 82 82 82
-1.809517 1.899516 0.702953 80 80 80
-0.775507 0.814078 -0.301265 0 0 0
-2.056509 2.158793 0.052043 63 63 63
-0.776910 0.815551 -0.260043 1 1 1
-2.030584 2.131579 0.154286 68 68 68
-0.797592 0.837262 -0.224773 1 1 1
-1.984406 2.083104 0.251706 65 65 65
-0.858380 0.901073 -0.197107 45 45 45
-1.957969 2.055352 0.348546 80 80 80
-2.211273 2.321254 -0.393638 100 100 100
-1.927949 2.023838 0.442710 63 63 63
-2.183671 2.292279 -0.276981 66 66 66
-1.875493 1.968774 0.528541 76 76 76
-2.133904 2.240037 -0.162137 56 56 56
-1.850875 1.942931 0.619515 75 75 75
-2.104784 2.209469 -0.053265 75 75 75
-1.814847 1.905111 0.705023 80 80 80
-0.772451 0.822289 -0.302301 0 0 0
-2.052341 2.184757 0.052322 61 61 61
-0.769864 0.819535 -0.259594 1 1 1
-2.021124 2.151525 0.154705 68 68 68
-0.756779 0.805606 -0.214851 1 1 1
-1.982092 2.109976 0.253275 73 73 73
-2.158574 2.297844 -0.499339 80 80 80
-1.949009 2.074758 0.349521 80 80 80
-2.186859 2.327954 -0.392176 97 97 97
-1.921888 2.045887 0.444587 61 61 61
-2.185349 2.326346 -0.279247 72 72 72
-1.877833 1.998990 0.533120 76 76 76
-2.122317 2.259247 -0.162451 59 59 59
-1.834597 1.952964 0.618615 72 72 72
-2.100261 2.235769 -0.053544 72 72 72
-1.817375 1.934631 0.711235 81 81 81
-0.771128 0.820881 -0.301783 0 0 0
-2.075616 2.209534 0.052916 83 83 83
-0.768529 0.818114 -0.259144 1 1 1
-2.027961 2.158804 0.155228 66 66 66
-0.771565 0.821346 -0.219049 1 1 1
-1.988913 2.117237 0.254146 68 68 68
-2.161279 2.300723 -0.499965 100 100 100
-1.962601 2.089227 0.351959 80 80 80
-2.182782 2.323614 -0.391444 100 100 100
-1.927298 2.051646 0.445838 61 61 61
-2.211267 2.353937 -0.282559 118 118 118
-1.883210 2.004714 0.534647 79 79 79
-2.141461 2.279627 -0.163916 59 59 59
-1.842602 1.961486 0.621315 79 79 79
-2.098892 2.234311 -0.053509 66 66 66
-1.817375 1.934631 0.711235 81 81 81
-0.763040 0.823143 -0.300748 0 0 0
-2.069073 2.232050 0.053125 83 83 83
-0.765736 0.826052 -0.260043 1 1 1
-2.027177 2.186854 0.156275 59 59 59
-0.770105 0.830764 -0.220194 1 1 1
-1.985663 2.142070 0.255541 78 78 78
-2.144629 2.313558 -0.499652 97 97 97
-1.964896 2.119667 0.354884 80 80 80
-2.170022 2.340951 -0.391932 100 100 100
-1.924392 2.075973 0.448341 57 57 57
-2.190189 2.362706 -0.281862 115 115 115
-1.888558 2.037317 0.539989 79 79 79
-2.137157 2.305497 -0.164754 57 57 57
-1.842801 1.987955 0.625814 69 69 69
-2.092184 2.256981 -0.053719 68 68 68
-1.812384 1.955142 0.714341 87 87 87
-0.743340 0.801892 -0.292983 0 0 0
-2.063636 2.226184 0.052986 75 75 75
-0.760437 0.820335 -0.258244 1 1 1
-2.038039 2.198572 0.157113 79 79 79
-0.764766 0.825005 -0.218667 1 1 1
-1.988372 2.144993 0.255889 70 70 70
-2.131200 2.299071 -0.496523 90 90 90
-1.967595 2.122578 0.355371 75 75 75
-2.170022 2.340951 -0.391932 100 100 100
-1.929763 2.081767 0.449593 57 57 57
-2.195607 2.368551 -0.282559 116 116 116
-1.888558 2.037317 0.539989 78 78 78
-2.153451 2.323074 -0.166010 59 59 59
-1.858699 2.005105 0.631213 79 79 79
-2.108497 2.274580 -0.054137 67 67 67
-1.815011 1.957976 0.715376 81 81 81
-0.737583 0.807190 -0.292983 0 0 0
-2.057095 2.251228 0.053230 68 68 68
-0.751918 0.822879 -0.257344 1 1 1
-2.030338 2.221946 0.157741 72 72 72
-0.764140 0.836254 -0.220194 1 1 1
-1.991788 2.179758 0.258330 68 68 68
-2.112029 2.311346 -0.495897 90 90 90
-1.956373 2.141000 0.356102 77 77 77
-2.147859 2.350557 -0.390957 86 86 86
-1.928142 2.110106 0.452721 61 61 61
-2.170538 2.375377 -0.281513 100 100 100
-1.884526 2.062373 0.543042 82 82 82
-2.147550 2.350220 -0.166847 61 61 61
-1.854819 2.029863 0.634812 77 77 77
-2.108354 2.307324 -0.054556 70 70 70
-1.811379 1.982323 0.719517 80 80 80
-0.761040 0.832861 -0.302301 0 0 0
-2.071933 2.267466 0.053614 75 75 75
-0.742716 0.812808 -0.254195 1 1 1
-2.030338 2.221946 0.157741 68 68 68
-0.758843 0.830457 -0.218667 1 1 1
-2.005228 2.194466 0.260073 67 67 67
-2.109364 2.308429 -0.495272 95 95 95
-1.965746 2.151258 0.357808 75 75 75
-2.134468 2.335903 -0.388519 86 86 86
-1.933472 2.115939 0.453973 60 60 60
-2.169194 2.373906 -0.281339 99 99 99
-1.895121 2.073968 0.546095 78 78 78
-2.152940 2.356117 -0.167266 67 67 67
-1.854819 2.029863 0.634812 77 77 77
-2.121843 2.322086 -0.054905 70 70 70
-1.832229 2.005141 0.727799 83 83 83
-0.729343 0.809450 -0.291948 0 0 0
-2.068100 2.295246 0.053928 70 70 70
-0.755286 0.838242 -0.260493 1 1 1
-2.030820 2.253871 0.158997 79 79 79
-0.758283 0.841568 -0.220194 1 1 1
-2.000528 2.220253 0.261467 72 72 72
-2.090552 2.320164 -0.494646 95 95 95
-1.965297 2.181151 0.360490 77 77 77
-2.114122 2.346323 -0.387788 90 90 90
-1.923943 2.135255 0.455224 63 63 63
-2.149901 2.386031 -0.280990 99 99 99
-1.896366 2.104650 0.550675 78 78 78
-2.153819 2.390379 -0.168626 115 115 115
-1.853648 2.057240 0.639311 75 75 75
-2.110934 2.342785 -0.055045 78 78 78
-1.823359 2.023624 0.729870 80 80 80
-0.734516 0.815190 -0.294018 0 0 0
-2.078809 2.307131 0.054207 73 73 73
-0.751373 0.833899 -0.259144 1 1 1
-2.040178 2.264258 0.159729 76 76 76
-0.758283 0.841568 -0.220194 1 1 1
-2.005863 2.226173 0.262164 75 75 75
-2.090552 2.320164 -0.494646 95 95 95
-1.981242 2.198848 0.363414 72 72 72
-2.114122 2.346323 -0.387788 93 93 93
-1.934521 2.146996 0.457727 61 61 61
-2.135230 2.369750 -0.279073 91 91 91
-1.914764 2.125069 0.556017 70 70 70
-2.167188 2.405217 -0.169673 107 107 107
-1.864083 2.068822 0.642910 73 73 73
-2.114950 2.347242 -0.055150 78 78 78
-1.831118 2.032235 0.732976 83 83 83
-0.726241 0.817410 -0.292983 0 0 0
-2.065308 2.324577 0.054277 73 73 73
-0.731295 0.823099 -0.254195 1 1 1
-2.038913 2.294869 0.160881 74 74 74
-0.747174 0.840971 -0.218667 1 1 1
-1.994243 2.244591 0.262687 68 68 68
-2.061183 2.319935 -0.491517 97 97 97
-1.972435 2.220046 0.364633 70 70 70
-2.095053 2.358057 -0.387301 90 90 90
-1.924733 2.166356 0.458979 63 63 63
-2.113341 2.378641 -0.278375 91 91 91
-1.889450 2.126643 0.552964 68 68 68
-2.147691 2.417302 -0.169464 103 103 103
-1.862538 2.096353 0.647409 72 72 72
-2.114450 2.379889 -0.055568 78 78 78
-1.824584 2.053634 0.736081 80 80 80
-0.723675 0.814522 -0.291948 0 0 0
-2.078589 2.339526 0.054626 70 70 70
-0.732590 0.824556 -0.254645 1 1 1
-2.049526 2.306814 0.161718 68 68 68
-0.734134 0.826294 -0.214851 1 1 1
-2.010122 2.262464 0.264779 65 65 65
-2.061183 2.319935 -0.491517 100 100 100
-1.973754 2.221530 0.364877 67 67 67
-2.095053 2.358057 -0.387301 90 90 90
-1.943101 2.187030 0.463359 61 61 61
-2.115988 2.381620 -0.278724 91 91 91
-1.892058 2.129579 0.553728 65 65 65
-2.141058 2.409837 -0.168940 85 85 85
-1.872893 2.108008 0.651008 69 69 69
-2.130388 2.397827 -0.055987 82 82 82
-1.834849 2.065188 0.740222 81 81 81
-0.720660 0.822334 -0.292983 0 0 0
-2.081068 2.374675 0.055115 73 73 73
-0.733382 0.836851 -0.256894 1 1 1
-2.041675 2.329724 0.162346 70 70 70
-0.738844 0.843084 -0.217904 1 1 1
-2.009120 2.292577 0.266697 67 67 67
-2.040137 2.327969 -0.490266 100 100 100
-1.963820 2.240885 0.365852 74 74 74
-2.065871 2.357334 -0.384863 93 93 93
-1.943793 2.218033 0.467113 60 60 60
-2.099728 2.395967 -0.278724 93 93 93
-1.890458 2.157173 0.557544 67 67 67
-2.119340 2.418346 -0.168522 85 85 85
-1.858501 2.120707 0.651008 67 67 67
-2.129833 2.430320 -0.056406 100 100 100
-1.833482 2.092158 0.745399 76 76 76
-0.723207 0.825240 -0.294018 0 0 0
-2.091612 2.386706 0.055394 68 68 68
-0.723107 0.825127 -0.253295 1 1 1
-2.050889 2.340238 0.163079 73 73 73
-0.733669 0.837178 -0.216377 1 1 1
-2.019626 2.304564 0.268091 70 70 70
-2.045344 2.333911 -0.491517 97 97 97
-1.974287 2.252829 0.367802 66 66 66
-2.060637 2.351362 -0.383888 93 93 93
-1.941189 2.215061 0.466488 60 60 60
-2.091849 2.386977 -0.277678 91 91 91
-1.905986 2.174891 0.562123 65 65 65
-2.116707 2.415342 -0.168312 85 85 85
-1.863638 2.126569 0.652808 69 69 69
-2.124561 2.424304 -0.056267 114 114 114
-1.838575 2.097970 0.747469 76 76 76
-0.709849 0.821498 -0.290913 0 0 0
-2.086666 2.414868 0.055708 64 64 64
-0.716055 0.828680 -0.252845 1 1 1
-2.046254 2.368100 0.164021 68 68 68
-0.730373 0.845251 -0.217141 1 1 1
-2.010001 2.326145 0.268963 75 75 75
-2.019960 2.337671 -0.489327 100 100 100
-1.981873 2.293593 0.372189 79 79 79
-2.046768 2.368695 -0.384376 93 93 93
-1.938593 2.243506 0.469616 67 67 67
-2.069923 2.395492 -0.276981 93 93 93
-1.903592 2.202999 0.565939 70 70 70
-2.102405 2.433083 -0.168522 83 83 83
-1.862762 2.155748 0.657757 63 63 63
-2.123274 2.457234 -0.056685 108 108 108
-1.833988 2.122448 0.751611 70 70 70
-0.709849 0.821498 -0.290913 0 0 0
-2.098433 2.428486 0.056022 75 75 75
-0.728796 0.843425 -0.257344 1 1 1
-2.063230 2.387746 0.165382 66 66 66
-0.740642 0.857135 -0.220194 1 1 1
-2.011304 2.327653 0.269137 75 75 75
-2.010919 2.327208 -0.487137 100 100 100
-1.985767 2.298099 0.372920 77 77 77
-2.045470 2.367192 -0.384132 93 93 93
-1.954092 2.261442 0.473371 65 65 65
-2.067318 2.392477 -0.276632 91 91 91
-1.903592 2.202999 0.565939 67 67 67
-2.102405 2.433083 -0.168522 83 83 83
-1.872955 2.167544 0.661356 67 67 67
-2.127196 2.461773 -0.056790 101 101 101
-1.830199 2.118063 0.750058 71 71 71
-0.704097 0.826434 -0.290913 0 0 0
-2.091802 2.455253 0.056301 78 78 78
-0.703933 0.826242 -0.250595 1 1 1
-2.056872 2.414254 0.166219 73 73 73
-0.737187 0.865273 -0.220957 1 1 1
-2.004049 2.352254 0.270357 71 71 71
-1.995905 2.342694 -0.487450 100 100 100
-1.972250 2.314929 0.373408 71 71 71
-2.026319 2.378393 -0.383645 90 90 90
-1.951067 2.290066 0.476499 65 65 65
-2.045397 2.400785 -0.275935 91 91 91
-1.893259 2.222213 0.567466 70 70 70
-2.067234 2.426417 -0.167056 81 81 81
-1.866624 2.190950 0.664505 67 67 67
-2.112552 2.479608 -0.056860 100 100 100
-1.830402 2.148434 0.756269 71 71 71
-0.706603 0.829375 -0.291948 0 0 0
-2.112552 2.479608 0.056860 100 100 100
-0.697614 0.818825 -0.248346 1 1 1
-2.058167 2.415775 0.166324 68 68 68
-0.749919 0.880217 -0.224773 1 1 1
-2.027307 2.379552 0.273495 71 71 71
-1.997186 2.344197 -0.487763 100 100 100
-1.979974 2.323995 0.374870 77 77 77
-2.017308 2.367815 -0.381939 100 100 100
-1.960035 2.300591 0.478689 58 58 58
-2.045397 2.400785 -0.275935 95 95 95
-1.908537 2.240146 0.572045 68 68 68
-2.064644 2.423376 -0.166847 83 83 83
-1.871679 2.196884 0.666305 72 72 72
-2.107364 2.473519 -0.056720 100 100 100
-1.841677 2.161669 0.760928 68 68 68
-0.701087 0.834043 -0.291948 0 0 0
-2.111501 2.511933 0.057279 115 115 115
-0.699692 0.832384 -0.251045 1 1 1
-2.054952 2.444660 0.167370 68 68 68
-0.739012 0.879160 -0.223247 3 3 3
-2.017891 2.400571 0.274366 75 75 75
-1.977781 2.352855 -0.486824 100 100 100
-1.981122 2.356830 0.378039 74 74 74
-1.995173 2.373545 -0.380720 97 97 97
-1.943463 2.312028 0.478377 56 56 56
-2.026865 2.411247 -0.275586 93 93 93
-1.908797 2.270789 0.576625 78 78 78
-2.053667 2.443132 -0.167266 83 83 83
-1.859576 2.212232 0.667205 67 67 67
-2.069039 2.461419 -0.056127 100 100 100
-1.838488 2.187145 0.765587 73 73 73
-0.693628 0.825170 -0.288842 0 0 0
-2.107640 2.507341 0.057174 119 119 119
-0.697184 0.829401 -0.250146 1 1 1
-2.074229 2.467593 0.168940 73 73 73
-0.741538 0.882166 -0.224010 4 4 4
-2.025583 2.409722 0.275412 75 75 75
-1.981595 2.357391 -0.487763 100 100 100
-1.996450 2.375064 0.380964 79 79 79
-1.996450 2.375064 -0.380964 100 100 100
-1.953631 2.324125 0.480880 58 58 58
-2.016609 2.399046 -0.274192 95 95 95
-1.918903 2.282811 0.579678 78 78 78
-2.048526 2.437016 -0.166847 83 83 83
-1.877131 2.233117 0.673503 73 73 73
-2.066465 2.458358 -0.056057 100 100 100
