2.108997 0.405747 -0.037488 1 1 1
3.010638 0.579213 0.821492 68 68 68
1.917930 0.368988 -0.523332 11 11 11
2.218963 0.426903 0.039442 2 2 2
2.170075 0.417498 -0.510189 1 1 1
2.365318 0.455060 0.126234 1 1 1
2.215157 0.426171 -0.438479 1 1 1
2.330203 0.448305 0.207605 1 1 1
2.261811 0.435147 -0.364805 1 1 1
2.081900 0.400534 0.260313 1 1 1
1.764156 0.339404 -0.220584 1 1 1
2.219135 0.426936 0.357922 1 1 1
1.805859 0.347427 -0.160890 1 1 1
2.195878 0.422462 0.434663 1 1 1
1.776930 0.341861 -0.094833 1 1 1
2.958498 0.569181 0.695549 1 1 1
2.197363 0.422748 -0.039058 1 1 1
3.027711 0.582497 0.826150 70 70 70
1.941354 0.359458 -0.529026 9 9 9
2.288743 0.423780 0.040629 1 1 1
2.165272 0.400919 -0.508389 1 1 1
2.360582 0.437082 0.125816 1 1 1
2.210356 0.409266 -0.436953 1 1 1
2.348949 0.434928 0.208999 1 1 1
2.276448 0.421504 -0.366682 1 1 1
2.080741 0.385267 0.259825 1 1 1
1.746964 0.323465 -0.218146 1 1 1
2.225946 0.412153 0.358548 1 1 1
1.788649 0.331184 -0.159146 1 1 1
2.210356 0.409266 0.436953 1 1 1
1.783201 0.330175 -0.095042 2 2 2
2.202227 0.407761 -0.039093 7 7 7
3.045001 0.563808 0.829774 74 74 74
1.933756 0.358051 -0.526956 9 9 9
2.151859 0.398435 -0.505240 2 2 2
2.352726 0.435627 0.125397 1 1 1
2.198773 0.407122 -0.434663 3 3 3
2.309767 0.427673 0.205513 1 1 1
2.272563 0.420784 -0.366057 1 1 1
2.104164 0.389604 0.262750 1 1 1
1.801617 0.333585 -0.224971 1 1 1
2.222062 0.411434 0.357922 1 1 1
1.847422 0.342066 -0.164376 1 1 1
1.818551 0.336720 -0.096926 1 1 1
2.970064 0.549933 0.697348 71 71 71
2.194362 0.406305 -0.038954 10 10 10
3.041202 0.563104 0.828739 70 70 70
1.936209 0.344543 -0.526956 14 14 14
2.150751 0.382720 -0.504340 2 2 2
2.355710 0.419192 0.125397 1 1 1
2.197696 0.391074 -0.433900 3 3 3
2.304850 0.410141 0.204816 1 1 1
2.259887 0.402140 -0.363554 1 1 1
2.157647 0.383947 0.269088 1 1 1
1.776541 0.316130 -0.221558 1 1 1
2.228770 0.396603 0.358548 1 1 1
1.781110 0.316943 -0.158275 3 3 3
2.985342 0.531233 0.700048 61 61 61
2.205020 0.392377 -0.039093 11 11 11
3.048863 0.542536 0.829774 70 70 70
1.945719 0.346235 -0.529544 19 19 19
2.104705 0.374526 -0.493543 3 3 3
2.320315 0.412893 0.123513 1 1 1
2.182233 0.388322 -0.430847 4 4 4
2.289158 0.407349 0.203422 1 1 1
2.255997 0.401448 -0.362928 1 1 1
2.255367 0.401336 0.281274 1 1 1
1.790222 0.318565 -0.223265 1 1 1
2.228770 0.396603 0.358548 1 1 1
1.757571 0.312755 -0.156183 9 9 9
2.998773 0.533623 0.703197 65 65 65
2.205020 0.392377 -0.039093 12 12 12
3.064079 0.545244 0.833915 66 66 66
1.959514 0.334594 -0.532650 19 19 19
2.043877 0.348999 -0.478696 3 3 3
2.244391 0.383238 0.119326 4 4 4
2.171344 0.370765 -0.428175 4 4 4
2.307657 0.394041 0.204816 1 1 1
2.270428 0.387684 -0.364805 1 1 1
2.238546 0.382240 0.278837 1 1 1
2.227590 0.380369 0.357922 1 1 1
1.779351 0.303830 -0.157926 17 17 17
3.006267 0.513331 0.704097 65 65 65
2.211648 0.377647 -0.039163 12 12 12
3.073524 0.524815 0.835468 55 55 55
1.961418 0.334919 -0.533167 15 15 15
2.022747 0.345391 -0.473747 4 4 4
2.260141 0.385927 0.120163 3 3 3
2.144251 0.366138 -0.422833 7 7 7
2.307657 0.394041 0.204816 1 1 1
2.284058 0.390011 -0.366995 1 1 1
2.269854 0.387586 0.282737 1 1 1
1.847192 0.315414 -0.230089 1 1 1
2.204223 0.376379 0.354168 1 1 1
1.765603 0.301483 -0.156706 6 6 6
3.006267 0.513331 0.704097 65 65 65
2.203763 0.376300 -0.039024 9 9 9
3.084949 0.526766 0.838574 30 30 30
1.961802 0.320906 -0.532650 15 15 15
2.297116 0.375755 0.040629 1 1 1
2.025109 0.331261 -0.473747 5 5 5
2.278549 0.372718 0.121001 1 1 1
2.127380 0.347991 -0.419017 9 9 9
2.294622 0.375348 0.203422 1 1 1
2.323765 0.380115 -0.372940 1 1 1
2.264668 0.370448 0.281762 1 1 1
1.776863 0.290654 -0.221071 3 3 3
2.206797 0.360981 0.354168 1 1 1
1.785361 0.292044 -0.158275 3 3 3
2.073558 0.339187 -0.110115 1 1 1
3.034778 0.496420 0.709946 67 67 67
2.208310 0.361229 -0.039058 3 3 3
3.098084 0.506776 0.841162 26 26 26
1.957989 0.320282 -0.531614 11 11 11
2.297116 0.375755 0.040629 1 1 1
2.007800 0.328430 -0.469698 3 3 3
2.264751 0.370461 0.120268 1 1 1
2.127380 0.347991 -0.419017 9 9 9
2.298554 0.375991 0.203770 1 1 1
2.304271 0.376926 -0.369811 1 1 1
2.248996 0.367884 0.279812 1 1 1
1.741600 0.284886 -0.216684 1 1 1
2.222393 0.363533 0.356671 2 2 2
1.791260 0.293009 -0.158798 7 7 7
2.846194 0.465572 0.560597 1 1 1
2.105095 0.344345 -0.111790 3 3 3
3.036702 0.496735 0.710395 61 61 61
2.230018 0.364780 -0.039442 3 3 3
3.090458 0.505528 0.839091 20 20 20
1.965903 0.307501 -0.533167 8 8 8
2.299683 0.359710 0.040629 1 1 1
1.985015 0.310490 -0.463849 2 2 2
2.265309 0.354333 0.120163 1 1 1
2.127817 0.332827 -0.418635 8 8 8
2.281439 0.356856 0.202027 1 1 1
2.295136 0.358998 -0.367934 1 1 1
2.247587 0.351561 0.279325 1 1 1
1.796501 0.281003 -0.223265 1 1 1
2.209263 0.345566 0.354168 1 1 1
1.793262 0.280497 -0.158798 4 4 4
2.843555 0.444780 0.559452 10 10 10
2.079822 0.325320 -0.110324 4 4 4
3.051647 0.477330 0.713095 63 63 63
2.226583 0.348275 -0.039338 1 1 1
3.046196 0.476477 0.826150 9 9 9
1.965903 0.307501 -0.533167 8 8 8
2.266097 0.354456 0.040036 1 1 1
1.977314 0.309285 -0.462049 3 3 3
2.249523 0.351864 0.119326 1 1 1
2.116179 0.331006 -0.416345 9 9 9
2.279470 0.356548 0.201853 1 1 1
2.328314 0.364188 -0.373253 1 1 1
2.275044 0.355856 0.282737 1 1 1
1.851415 0.289593 -0.230089 1 1 1
1.820820 0.284807 -0.161238 1 1 1
2.864892 0.448118 0.563650 11 11 11
2.052196 0.320998 -0.108859 6 6 6
3.051647 0.477330 0.713095 62 62 62
2.252267 0.352293 -0.039791 1 1 1
3.153080 0.493195 0.855138 12 12 12
2.215010 0.143626 0.038744 1 1 1
1.843534 0.119539 -0.426507 0 0 0
2.985624 0.193595 0.156799 1 1 1
2.178564 0.141263 -0.424359 1 1 1
2.992262 0.194025 0.262339 19 19 19
2.225527 0.144308 -0.353229 11 11 11
3.104121 0.201279 0.381939 57 57 57
2.365233 0.153367 -0.291024 1 1 1
3.185519 0.206557 0.505596 12 12 12
2.348081 0.152255 -0.205862 1 1 1
3.289396 0.213292 0.640737 57 57 57
2.272104 0.147329 -0.119326 1 1 1
3.405093 0.220794 0.787779 55 55 55
2.272880 0.147379 -0.039757 1 1 1
3.510530 0.227631 0.942619 95 95 95
2.230974 0.144662 0.039024 1 1 1
1.862981 0.120800 -0.431006 0 0 0
2.977652 0.193078 0.156380 1 1 1
2.160931 0.140120 -0.420925 9 9 9
2.892851 0.187579 0.253623 7 7 7
2.227498 0.144436 -0.353542 12 12 12
3.112045 0.201792 0.382913 27 27 27
2.357309 0.152854 -0.290049 1 1 1
3.071187 0.199143 0.487450 14 14 14
2.348081 0.152255 -0.205862 1 1 1
3.308988 0.214563 0.644553 58 58 58
2.268118 0.147070 -0.119117 1 1 1
3.412872 0.221299 0.789578 56 56 56
2.236961 0.145050 -0.039128 1 1 1
3.529808 0.228881 0.947795 94 94 94
2.217978 0.127888 0.038779 1 1 1
1.961073 0.113075 -0.453501 1 1 1
2.990921 0.172455 0.157008 3 3 3
2.169719 0.125105 -0.422451 9 9 9
2.864283 0.165154 0.251009 7 7 7
2.256084 0.130085 -0.357922 9 9 9
3.125300 0.180204 0.384376 14 14 14
2.342488 0.135067 -0.288099 1 1 1
3.161278 0.182278 0.501529 6 6 6
2.317285 0.133614 -0.203073 1 1 1
3.326118 0.191783 0.647606 56 56 56
2.291045 0.132101 -0.120268 1 1 1
3.429932 0.197769 0.793177 55 55 55
2.249920 0.129730 -0.039338 1 1 1
3.535212 0.203839 0.948831 95 95 95
2.173639 0.125331 -0.423214 9 9 9
2.848371 0.164236 0.249614 3 3 3
2.238335 0.129062 -0.355106 9 9 9
3.121336 0.179975 0.383888 16 16 16
2.360325 0.136095 -0.290293 1 1 1
2.323252 0.133958 -0.203596 1 1 1
3.331998 0.192122 0.648751 53 53 53
2.277088 0.131296 -0.119535 1 1 1
3.453278 0.199115 0.798576 57 57 57
2.247923 0.129614 -0.039303 1 1 1
3.550641 0.204729 0.952972 98 98 98
3.005988 0.152803 0.157741 61 61 61
2.194049 0.111530 -0.427031 10 10 10
2.867331 0.145754 0.251183 2 2 2
2.250998 0.114425 -0.356983 9 9 9
3.076891 0.156407 0.378282 14 14 14
2.361196 0.120026 -0.290293 1 1 1
3.265033 0.165971 0.517798 63 63 63
2.322120 0.118040 -0.203422 1 1 1
3.335189 0.169537 0.649132 60 60 60
2.257982 0.114780 -0.118489 1 1 1
3.466231 0.176198 0.801276 55 55 55
2.202820 0.111975 -0.038500 1 1 1
3.575105 0.181733 0.959183 100 100 100
3.005988 0.152803 0.157741 60 60 60
2.199931 0.111829 -0.428175 13 13 13
2.903148 0.147575 0.254320 2 2 2
2.274672 0.115628 -0.360738 7 7 7
3.178000 0.161547 0.390713 33 33 33
2.341371 0.119018 -0.287855 1 1 1
3.280815 0.166773 0.520301 63 63 63
2.310181 0.117433 -0.202376 1 1 1
3.358718 0.170733 0.653712 58 58 58
2.236040 0.113664 -0.117337 1 1 1
3.466231 0.176198 0.801276 57 57 57
2.200823 0.111874 -0.038465 1 1 1
3.602116 0.183106 0.966430 94 94 94
3.012968 0.132076 0.158055 63 63 63
2.186928 0.095866 -0.425504 12 12 12
2.937945 0.128787 0.257284 2 2 2
2.281345 0.100005 -0.361676 6 6 6
3.169134 0.138922 0.389494 29 29 29
2.330246 0.102148 -0.286393 1 1 1
3.279926 0.143778 0.519988 60 60 60
2.322888 0.101826 -0.203422 1 1 1
3.379442 0.148141 0.657528 57 57 57
2.282672 0.100063 -0.119745 1 1 1
3.486845 0.152849 0.805775 57 57 57
2.197555 0.096332 -0.038395 1 1 1
3.618747 0.158631 0.970571 96 96 96
3.000661 0.131536 0.052427 1 1 1
2.145451 0.094048 -0.495792 1 1 1
3.028931 0.132776 0.158892 63 63 63
2.192813 0.096124 -0.426649 10 10 10
2.957850 0.129660 0.259027 2 2 2
2.275424 0.099745 -0.360738 6 6 6
3.179050 0.139356 0.390713 14 14 14
2.344128 0.102757 -0.288099 1 1 1
3.293741 0.144384 0.522178 63 63 63
2.314926 0.101477 -0.202724 1 1 1
3.406901 0.149344 0.662870 56 56 56
2.274691 0.099713 -0.119326 1 1 1
3.502420 0.153531 0.809374 57 57 57
2.193559 0.096156 -0.038325 1 1 1
3.626467 0.158969 0.972642 96 96 96
1.874556 0.069064 -0.502627 1 1 1
3.017493 0.111174 0.052706 1 1 1
2.169425 0.079928 -0.501191 6 6 6
3.055730 0.112583 0.160253 66 66 66
2.209126 0.081391 -0.429702 8 8 8
2.996513 0.110401 0.262339 4 4 4
2.276065 0.083857 -0.360738 6 6 6
3.193832 0.117671 0.392419 12 12 12
2.352723 0.086682 -0.289074 1 1 1
3.320331 0.122331 0.526246 60 60 60
2.291685 0.084433 -0.200633 1 1 1
3.401975 0.125339 0.661726 55 55 55
2.265352 0.083463 -0.118803 1 1 1
3.530670 0.130081 0.815673 57 57 57
2.198174 0.080988 -0.038395 1 1 1
3.642932 0.134217 0.976783 98 98 98
1.805057 0.066504 -0.483992 1 1 1
2.226150 0.082018 0.038884 1 1 1
2.169425 0.079928 -0.501191 13 13 13
3.071698 0.113171 0.161090 64 64 64
2.236593 0.082403 -0.435045 8 8 8
3.092083 0.113922 0.270706 21 21 21
2.262247 0.083348 -0.358548 6 6 6
3.134319 0.115478 0.385107 12 12 12
2.330902 0.085878 -0.286393 1 1 1
3.330201 0.122695 0.527810 57 57 57
2.283721 0.084139 -0.199935 1 1 1
3.417670 0.125918 0.664779 55 55 55
2.237409 0.082433 -0.117337 1 1 1
3.557934 0.131085 0.821971 56 56 56
6.238816 0.229857 -0.108973 2 2 2
3.662238 0.134928 0.981959 100 100 100
2.164086 0.064607 -0.499841 10 10 10
3.076406 0.091843 0.161299 66 66 66
2.246925 0.067080 -0.436953 9 9 9
3.154539 0.094176 0.276109 19 19 19
2.290416 0.068378 -0.362928 2 2 2
3.033854 0.090573 0.372676 28 28 28
2.303666 0.068774 -0.282981 1 1 1
3.344798 0.099856 0.530000 60 60 60
2.294210 0.068491 -0.200807 1 1 1
3.449864 0.102992 0.670884 52 52 52
2.251905 0.067228 -0.118070 1 1 1
3.566554 0.106476 0.823771 53 53 53
6.240269 0.186297 -0.108973 2 2 2
3.682400 0.109934 0.987136 100 100 100
3.004204 0.089687 0.052462 65 65 65
2.167982 0.064723 -0.500741 9 9 9
3.084391 0.092081 0.161718 66 66 66
2.241038 0.066904 -0.435808 9 9 9
3.156531 0.094235 0.276284 19 19 19
2.339779 0.069852 -0.370750 1 1 1
3.267991 0.097563 0.401438 14 14 14
2.283824 0.068181 -0.280543 1 1 1
3.350721 0.100032 0.530939 57 57 57
2.284253 0.068194 -0.199935 1 1 1
3.465563 0.103461 0.673937 51 51 51
2.237930 0.066811 -0.117337 1 1 1
3.582137 0.106941 0.827370 56 56 56
2.198685 0.065640 -0.038395 1 1 1
3.697848 0.110396 0.991277 100 100 100
2.998759 0.068575 0.052357 40 40 40
2.182018 0.049898 -0.503890 9 9 9
3.100933 0.070912 0.162555 64 64 64
2.241450 0.051257 -0.435808 10 10 10
3.125242 0.071467 0.273495 41 41 41
2.357983 0.053922 -0.373566 1 1 1
3.274546 0.074882 0.402169 61 61 61
2.335843 0.053416 -0.286880 1 1 1
3.363187 0.076909 0.532816 57 57 57
2.280690 0.052154 -0.199587 1 1 1
3.487791 0.079758 0.678135 56 56 56
2.252319 0.051506 -0.118070 1 1 1
3.610072 0.082554 0.833669 48 48 48
3.713980 0.084931 0.995418 100 100 100
2.882807 0.065923 0.050333 7 7 7
2.203449 0.050388 -0.508839 10 10 10
3.122897 0.071414 0.163707 67 67 67
2.253227 0.051526 -0.438097 10 10 10
3.085405 0.070556 0.270008 99 99 99
2.342184 0.053561 -0.371063 1 1 1
3.284469 0.075109 0.403388 52 52 52
2.323936 0.053143 -0.285418 1 1 1
3.392810 0.077586 0.537509 55 55 55
2.280690 0.052154 -0.199587 1 1 1
3.485828 0.079713 0.677754 51 51 51
2.230355 0.051003 -0.116919 1 1 1
3.621761 0.082822 0.836368 50 50 50
3.733293 0.085372 1.000594 100 100 100
2.865202 0.045510 0.050019 9 9 9
2.197902 0.034911 -0.507490 9 9 9
3.133304 0.049769 0.164230 73 73 73
2.263347 0.035951 -0.440006 9 9 9
3.197382 0.050787 0.279770 28 28 28
2.302999 0.036580 -0.364805 1 1 1
3.296822 0.052366 0.404850 56 56 56
2.320280 0.036855 -0.284931 1 1 1
3.407095 0.054118 0.539699 52 52 52
2.273030 0.036104 -0.198889 1 1 1
3.502004 0.055625 0.680806 51 51 51
2.206693 0.035051 -0.115662 1 1 1
3.641736 0.057845 0.840867 46 46 46
2.963175 0.047067 -0.051729 1 1 1
3.760841 0.059737 1.007841 100 100 100
2.845208 0.045193 0.049670 6 6 6
2.211541 0.035128 -0.510639 9 9 9
3.131307 0.049737 0.164126 67 67 67
2.275125 0.036138 -0.442295 9 9 9
3.183437 0.050565 0.278550 25 25 25
2.322750 0.036894 -0.367934 1 1 1
3.308732 0.052555 0.406312 55 55 55
2.294477 0.036445 -0.281762 1 1 1
3.424871 0.054400 0.542515 55 55 55
2.269045 0.036041 -0.198541 1 1 1
3.525560 0.055999 0.685386 51 51 51
2.222669 0.035305 -0.116500 1 1 1
3.647581 0.057938 0.842217 48 48 48
3.009162 0.047797 -0.052532 1 1 1
3.776294 0.059982 1.011982 100 100 100
2.837455 0.025257 0.049530 3 3 3
2.231219 0.019861 -0.515138 13 13 13
3.141564 0.027964 0.164649 64 64 64
2.291027 0.020393 -0.445348 8 8 8
3.175743 0.028269 0.277853 22 22 22
2.350605 0.020924 -0.372314 1 1 1
3.320928 0.029561 0.407775 55 55 55
2.276811 0.020267 -0.279568 1 1 1
3.433069 0.030559 0.543766 56 56 56
2.257288 0.020093 -0.197495 1 1 1
3.545497 0.031560 0.689202 55 55 55
2.278782 0.020284 -0.119431 1 1 1
3.665435 0.032628 0.846266 50 50 50
2.945435 0.026219 -0.051415 3 3 3
3.807529 0.033892 1.020265 100 100 100
2.084385 0.018554 -0.558531 1 1 1
2.837455 0.025257 0.049530 2 2 2
2.237065 0.019913 -0.516488 14 14 14
3.153547 0.028071 0.165277 60 60 60
2.308696 0.020551 -0.448783 6 6 6
3.157812 0.028109 0.276284 12 12 12
2.334803 0.020783 -0.369811 1 1 1
3.348718 0.029808 0.411187 57 57 57
2.284751 0.020338 -0.280543 1 1 1
3.437019 0.030594 0.544392 56 56 56
2.247326 0.020004 -0.196623 1 1 1
3.561202 0.031700 0.692255 53 53 53
3.681024 0.032766 0.849865 49 49 49
3.811392 0.033927 1.021300 100 100 100
2.030372 0.003898 -0.544038 1 1 1
2.871557 0.005513 0.050123 2 2 2
2.242996 0.004306 -0.517837 14 14 14
3.159658 0.006066 0.165591 28 28 28
2.308783 0.004433 -0.448783 5 5 5
3.088198 0.005929 0.270183 45 45 45
2.311186 0.004437 -0.366057 1 1 1
3.364725 0.006460 0.413137 57 57 57
2.286822 0.004390 -0.280787 1 1 1
3.460854 0.006644 0.548146 61 61 61
2.239442 0.004299 -0.195926 1 1 1
3.580969 0.006875 0.696071 51 51 51
3.700651 0.007105 0.854364 52 52 52
3.001537 0.005763 -0.052392 59 59 59
3.826991 0.007347 1.025441 100 100 100
2.038100 0.003913 -0.546108 1 1 1
2.901553 0.005571 0.050647 2 2 2
2.225457 0.004273 -0.513788 4 4 4
3.155664 0.006058 0.165382 15 15 15
2.300930 0.004417 -0.447256 4 4 4
3.042373 0.005841 0.266174 121 121 121
2.299334 0.004414 -0.364179 1 1 1
3.364725 0.006460 0.413137 57 57 57
2.316598 0.004448 -0.284443 1 1 1
3.486533 0.006694 0.552214 63 63 63
2.255381 0.004330 -0.197321 1 1 1
3.584896 0.006883 0.696834 52 52 52
3.727933 0.007157 0.860663 49 49 49
3.015535 0.005789 -0.052636 55 55 55
3.854037 0.007399 1.032688 100 100 100
1.976259 -0.010003 -0.529544 1 1 1
2.961511 -0.014990 0.051694 2 2 2
2.233228 -0.011303 -0.515588 1 1 1
3.159623 -0.015992 0.165591 18 18 18
2.296978 -0.011626 -0.446493 5 5 5
3.261500 -0.016508 0.285348 19 19 19
2.303260 -0.011658 -0.364805 1 1 1
3.384539 -0.017131 0.415574 57 57 57
2.280842 -0.011544 -0.280056 1 1 1
3.504273 -0.017737 0.555029 61 61 61
2.267310 -0.011476 -0.198366 1 1 1
3.608415 -0.018264 0.701414 56 56 56
3.737636 -0.018918 0.862912 48 48 48
3.033499 -0.015354 -0.052951 59 59 59
3.881040 -0.019644 1.039935 100 100 100
1.926031 -0.009749 -0.516085 1 1 1
3.077492 -0.015577 0.053719 12 12 12
2.227381 -0.011274 -0.514238 1 1 1
3.073742 -0.015558 0.161090 49 49 49
2.291088 -0.011596 -0.445348 4 4 4
3.317286 -0.016790 0.290229 57 57 57
2.301284 -0.011648 -0.364492 1 1 1
3.404390 -0.017231 0.418012 55 55 55
2.272902 -0.011504 -0.279081 1 1 1
3.506249 -0.017747 0.555342 63 63 63
2.243402 -0.011355 -0.196275 1 1 1
3.643753 -0.018443 0.708283 52 52 52
3.766866 -0.019066 0.869661 55 55 55
3.029500 -0.015334 -0.052881 58 58 58
3.898427 -0.019732 1.044594 100 100 100
1.906599 -0.022962 -0.510909 1 1 1
3.155291 -0.038000 0.055080 62 62 62
2.221403 -0.026753 -0.512888 1 1 1
3.111504 -0.037473 0.163079 11 11 11
2.308620 -0.027804 -0.448783 4 4 4
3.325057 -0.040045 0.290926 62 62 62
2.312998 -0.027856 -0.366370 1 1 1
3.420066 -0.041189 0.419962 54 54 54
2.254901 -0.027157 -0.276887 1 1 1
3.523816 -0.042439 0.558158 60 60 60
2.231314 -0.026873 -0.195229 1 1 1
3.649425 -0.043951 0.709428 48 48 48
2.929767 -0.035284 -0.153554 1 1 1
3.782230 -0.045551 0.873260 53 53 53
3.037317 -0.036579 -0.053020 58 58 58
3.907853 -0.047064 1.047182 100 100 100
1.904668 -0.022939 -0.510391 2 2 2
3.147292 -0.037904 0.054940 62 62 62
2.213608 -0.026659 -0.511089 1 1 1
3.225340 -0.038844 0.169045 40 40 40
2.314509 -0.027874 -0.449928 1 1 1
3.313103 -0.039901 0.289880 52 52 52
2.279419 -0.027452 -0.361051 1 1 1
3.439916 -0.041428 0.422399 51 51 51
2.264826 -0.027276 -0.278106 1 1 1
3.541594 -0.042653 0.560974 57 57 57
2.209400 -0.026609 -0.193311 1 1 1
3.661204 -0.044093 0.711718 48 48 48
2.783977 -0.033528 -0.145913 1 1 1
3.817305 -0.045973 0.881358 45 45 45
3.059312 -0.036844 -0.053404 55 55 55
3.927170 -0.047296 1.052358 100 100 100
2.519463 -0.928979 -0.719517 9 9 9
4.902557 -1.807677 0.091206 88 88 88
2.684104 -0.989686 -0.660456 9 9 9
3.789090 -1.397118 0.211647 31 31 31
2.897508 -1.068373 -0.600285 7 7 7
2.942377 -1.084917 0.274366 34 34 34
3.134100 -1.155609 -0.529061 7 7 7
3.345079 -1.233402 0.437755 1 1 1
3.404680 -1.255378 -0.445554 6 6 6
3.319440 -1.223948 0.560348 4 4 4
3.159449 -1.164956 -0.176477 1 1 1
4.571022 -1.685433 1.124755 2 2 2
3.330286 -1.227947 -0.061956 1 1 1
4.491532 -1.656123 1.282707 123 123 123
2.508587 -0.924969 -0.716411 9 9 9
4.906309 -1.809060 0.091276 86 86 86
2.676790 -0.986989 -0.658657 8 8 8
3.781594 -1.394354 0.211228 37 37 37
2.875404 -1.060222 -0.595706 7 7 7
2.955463 -1.089742 0.275586 47 47 47
3.119273 -1.150142 -0.526558 7 7 7
3.345079 -1.233402 0.437755 1 1 1
3.400955 -1.254004 -0.445067 6 6 6
3.341681 -1.232149 0.564103 5 5 5
3.174440 -1.170483 -0.177314 1 1 1
4.545424 -1.675994 1.118457 2 2 2
3.347172 -1.234173 -0.062270 1 1 1
4.487906 -1.654786 1.281672 123 123 123
2.476759 -0.932926 -0.709164 9 9 9
4.889817 -1.841859 0.091206 82 82 82
2.669835 -1.005653 -0.658657 10 10 10
3.788589 -1.427057 0.212170 46 46 46
2.856909 -1.076118 -0.593416 7 7 7
2.932867 -1.104730 0.274192 49 49 49
3.098228 -1.167016 -0.524368 6 6 6
3.338245 -1.257424 0.437998 1 1 1
3.364252 -1.267220 -0.441411 6 6 6
3.379212 -1.272856 0.571924 11 11 11
3.249833 -1.224122 -0.303825 1 1 1
3.164323 -1.191913 -0.177210 1 1 1
4.535437 -1.708373 1.118907 22 22 22
3.338475 -1.257511 -0.062270 1 1 1
4.469013 -1.683353 1.279601 123 123 123
2.458680 -0.926117 -0.703988 9 9 9
4.865490 -1.832695 0.090753 16 16 16
2.644304 -0.996036 -0.652358 8 8 8
3.782982 -1.424944 0.211856 44 44 44
2.838536 -1.069198 -0.589600 7 7 7
2.914222 -1.097706 0.272449 40 40 40
3.063105 -1.153787 -0.518424 7 7 7
3.338245 -1.257424 0.437998 1 1 1
3.358679 -1.265121 -0.440680 7 7 7
3.419881 -1.288174 0.578808 17 17 17
3.249833 -1.224122 -0.303825 1 1 1
4.646381 -1.750163 0.965112 1 1 1
3.145632 -1.184872 -0.176163 1 1 1
4.553673 -1.715242 1.123406 30 30 30
3.334732 -1.256101 -0.062200 1 1 1
4.465397 -1.681991 1.278566 123 123 123
2.455596 -0.945075 -0.705023 9 9 9
4.855984 -1.868901 0.090822 3 3 3
2.615284 -1.006533 -0.646959 8 8 8
3.778281 -1.454130 0.212170 39 39 39
2.827148 -1.088072 -0.588837 9 9 9
4.752708 -1.829154 0.445540 69 69 69
3.043709 -1.171419 -0.516547 7 7 7
3.321751 -1.278428 0.437023 1 1 1
3.323604 -1.279141 -0.437267 7 7 7
3.410576 -1.312613 0.578808 45 45 45
3.240990 -1.247346 -0.303825 1 1 1
4.633738 -1.783366 0.965112 1 1 1
3.148257 -1.211656 -0.176791 2 2 2
4.523096 -1.740784 1.118907 36 36 36
3.323792 -1.279213 -0.062165 1 1 1
4.460459 -1.716677 1.280637 124 124 124
2.444779 -0.940911 -0.701917 9 9 9
3.788488 -1.458059 0.070857 1 1 1
2.600735 -1.000933 -0.643360 8 8 8
3.782009 -1.455565 0.212379 34 34 34
2.816155 -1.083841 -0.586547 7 7 7
4.767584 -1.834879 0.446935 100 100 100
3.036334 -1.168581 -0.515295 7 7 7
3.321751 -1.278428 0.437023 1 1 1
3.305077 -1.272011 -0.434830 5 5 5
3.203801 -1.233033 -0.300339 1 1 1
3.140801 -1.208786 -0.176372 1 1 1
4.515821 -1.737984 1.117107 36 36 36
3.183823 -1.225344 -0.059548 1 1 1
4.456853 -1.715289 1.279601 123 123 123
2.431125 -0.954706 -0.699847 9 9 9
3.744972 -1.470655 0.070228 1 1 1
2.590233 -1.017188 -0.642460 8 8 8
3.783168 -1.485655 0.213007 20 20 20
2.786783 -1.094373 -0.581967 9 9 9
4.729020 -1.857092 0.444494 93 93 93
3.015439 -1.184167 -0.513105 7 7 7
3.305581 -1.298106 0.436049 1 1 1
3.257540 -1.279240 -0.429711 6 6 6
3.232424 -1.269377 -0.303825 1 1 1
4.621492 -1.814866 0.965112 1 1 1
3.128782 -1.228677 -0.176163 1 1 1
4.496631 -1.765833 1.115307 40 40 40
3.115847 -1.223597 -0.058431 1 1 1
4.445074 -1.745586 1.279601 123 123 123
2.413143 -0.947644 -0.694670 9 9 9
4.848734 -1.904104 0.090927 5 5 5
2.582978 -1.014339 -0.640661 8 8 8
2.775819 -1.090068 -0.579678 9 9 9
4.723457 -1.854908 0.443971 90 90 90
3.006246 -1.180557 -0.511541 7 7 7
3.296343 -1.294478 0.434830 3 3 3
3.250149 -1.276338 -0.428736 5 5 5
3.901684 -1.532196 0.663908 1 1 1
3.187916 -1.251899 -0.299641 1 1 1
4.546568 -1.785443 0.949466 1 1 1
3.130641 -1.229407 -0.176268 1 1 1
4.503886 -1.768682 1.117107 38 38 38
3.110263 -1.221404 -0.058326 1 1 1
4.437882 -1.742762 1.277531 124 124 124
2.393749 -0.959855 -0.691047 9 9 9
4.821992 -1.933542 0.090683 7 7 7
2.572036 -1.031345 -0.639761 8 8 8
3.373877 -1.352871 0.190503 1 1 1
2.753370 -1.104057 -0.576625 10 10 10
4.698967 -1.884211 0.442925 90 90 90
2.968385 -1.190275 -0.506535 7 7 7
3.288838 -1.318772 0.435074 3 3 3
3.226193 -1.293652 -0.426786 5 5 5
3.828282 -1.535080 0.653270 1 1 1
3.164082 -1.268747 -0.298247 1 1 1
3.136594 -1.257724 -0.177105 5 5 5
4.480262 -1.796514 1.114408 36 36 36
3.125571 -1.253304 -0.058780 1 1 1
4.421711 -1.773036 1.276496 126 126 126
2.393749 -0.959855 -0.691047 9 9 9
3.227654 -1.294238 0.060699 3 3 3
2.553948 -1.024093 -0.635262 8 8 8
3.357193 -1.346181 0.189561 13 13 13
2.746081 -1.101135 -0.575098 10 10 10
4.704515 -1.886436 0.443448 48 48 48
2.961051 -1.187335 -0.505283 7 7 7
3.202241 -1.284048 0.423618 2 2 2
3.213296 -1.288480 -0.425080 6 6 6
3.846617 -1.542432 0.656399 1 1 1
3.160383 -1.267263 -0.297898 1 1 1
4.544609 -1.822316 0.951755 100 100 100
3.118056 -1.250291 -0.176058 11 11 11
4.487497 -1.799415 1.116207 38 38 38
3.147844 -1.262235 -0.059199 1 1 1
4.425297 -1.774474 1.277531 124 124 124
2.385201 -0.975812 -0.690529 9 9 9
3.207435 -1.312196 0.060490 11 11 11
2.532308 -1.035994 -0.631663 8 8 8
3.310743 -1.354461 0.187467 16 16 16
2.731058 -1.117305 -0.573572 9 9 9
2.934407 -1.200498 -0.502155 7 7 7
3.119707 -1.276306 0.413868 2 2 2
3.189524 -1.304869 -0.423130 7 7 7
3.883290 -1.588696 0.664534 1 1 1
3.162524 -1.293823 -0.298944 1 1 1
4.520874 -1.849538 0.949466 89 89 89
3.122191 -1.277322 -0.176791 9 9 9
4.467611 -1.827748 1.114408 38 38 38
3.190778 -1.305382 -0.060176 1 1 1
4.419953 -1.808251 1.279601 123 123 123
2.376261 -0.972154 -0.687941 9 9 9
3.211136 -1.313711 0.060560 16 16 16
2.525093 -1.033043 -0.629863 9 9 9
3.284863 -1.343873 0.186002 17 17 17
2.705619 -1.106898 -0.568229 9 9 9
2.934407 -1.200498 -0.502155 7 7 7
3.075612 -1.258266 0.408019 2 2 2
3.171151 -1.297352 -0.420693 8 8 8
3.780906 -1.546810 0.647013 1 1 1
3.142239 -1.285524 -0.297027 1 1 1
4.517240 -1.848052 0.948702 22 22 22
4.456789 -1.823321 1.111708 36 36 36
3.190778 -1.305382 -0.060176 1 1 1
4.416377 -1.806788 1.278566 123 123 123
2.355154 -0.982768 -0.683800 10 10 10
3.190814 -1.331476 0.060350 22 22 22
2.516021 -1.049896 -0.629413 9 9 9
3.251439 -1.356774 0.184641 17 17 17
2.688767 -1.121980 -0.566321 9 9 9
2.903347 -1.211521 0.275238 1 1 1
2.915017 -1.216390 -0.500277 9 9 9
3.026449 -1.262889 0.402656 2 2 2
3.147361 -1.313343 -0.418743 8 8 8
3.755431 -1.567082 0.644510 1 1 1
3.151575 -1.315102 -0.298770 1 1 1
4.518722 -1.885591 0.951755 43 43 43
3.256969 -1.359081 -0.184955 1 1 1
4.451145 -1.857392 1.113508 36 36 36
4.148612 -1.731150 -0.078466 1 1 1
4.389393 -1.831624 1.274425 124 124 124
2.340891 -0.976816 -0.679659 9 9 9
3.155750 -1.316844 0.059687 8 8 8
2.499835 -1.043141 -0.625364 9 9 9
3.227477 -1.346775 0.183281 18 18 18
2.676084 -1.116687 -0.563650 8 8 8
2.888638 -1.205382 0.273843 1 1 1
2.882202 -1.202697 -0.494646 7 7 7
2.971490 -1.239955 0.395344 2 2 2
3.140033 -1.310286 -0.417768 8 8 8
3.788245 -1.580774 0.650142 1 1 1
3.153414 -1.315869 -0.298944 1 1 1
4.511475 -1.882567 0.950229 100 100 100
3.256969 -1.359081 -0.184955 1 1 1
4.454742 -1.858893 1.114408 38 38 38
4.060029 -1.694186 -0.076791 1 1 1
4.380479 -1.827904 1.271837 100 100 100
2.323349 -0.988597 -0.676553 10 10 10
2.479940 -1.055227 -0.622215 9 9 9
3.179403 -1.352852 0.181082 14 14 14
2.657384 -1.130730 -0.561360 9 9 9
2.861819 -1.217719 0.272100 2 2 2
2.866465 -1.219695 -0.493394 7 7 7
2.915269 -1.240462 0.389007 3 3 3
3.119849 -1.327512 -0.416306 8 8 8
3.720770 -1.583206 0.640443 1 1 1
3.144151 -1.337852 -0.298944 1 1 1
4.483770 -1.907867 0.947176 91 91 91
4.441656 -1.889947 1.114408 36 36 36
3.775776 -1.606612 -0.071625 1 1 1
4.380054 -1.863735 1.275460 97 97 97
2.330459 -0.991622 -0.678624 10 10 10
3.245842 -1.381123 0.061572 1 1 1
2.474560 -1.052938 -0.620865 9 9 9
3.138971 -1.335648 0.178780 15 15 15
2.648351 -1.126887 -0.559452 9 9 9
2.883819 -1.227080 0.274192 4 4 4
2.848288 -1.211961 -0.490266 7 7 7
2.869604 -1.221031 0.382913 3 3 3
3.077837 -1.309635 -0.410700 7 7 7
3.668057 -1.560777 0.631370 1 1 1
3.184484 -1.355014 -0.302779 1 1 1
4.483770 -1.907867 0.947176 100 100 100
4.427311 -1.883843 1.110808 36 36 36
4.077544 -1.735016 -0.077349 1 1 1
4.381832 -1.864492 1.275978 94 94 94
2.314793 -1.003620 -0.676035 10 10 10
3.159310 -1.369775 0.060106 1 1 1
2.453032 -1.063556 -0.617266 9 9 9
3.115147 -1.350627 0.177942 14 14 14
2.619004 -1.135516 -0.554873 9 9 9
2.868088 -1.243510 0.273495 2 2 2
2.836348 -1.229749 -0.489640 7 7 7
2.821158 -1.223163 0.377551 9 9 9
3.059745 -1.326607 -0.409481 8 8 8
3.606602 -1.563706 0.622609 1 1 1
3.156907 -1.368733 -0.301036 1 1 1
4.479686 -1.942248 0.949084 91 91 91
4.417961 -1.915486 1.111708 36 36 36
4.036285 -1.750003 -0.076791 3 3 3
4.365494 -1.892738 1.274943 96 96 96
2.295297 -0.995167 -0.670341 10 10 10
4.557332 -1.975912 0.086704 3 3 3
2.447669 -1.061230 -0.615916 9 9 9
2.609998 -1.131611 -0.552964 8 8 8
2.879055 -1.248266 0.274541 1 1 1
2.825474 -1.225034 -0.487763 9 9 9
2.853941 -1.237377 0.381939 7 7 7
3.043354 -1.319500 -0.407287 7 7 7
3.472487 -1.505559 0.599457 1 1 1
3.186155 -1.381414 -0.303825 1 1 1
4.476084 -1.940686 0.948321 89 89 89
3.650220 -1.582618 -0.208506 6 6 6
4.416174 -1.914710 1.111258 44 44 44
4.017938 -1.742048 -0.076442 3 3 3
4.351315 -1.886590 1.270802 94 94 94
2.270623 -1.003358 -0.665165 10 10 10
4.534281 -2.003639 0.086529 5 5 5
2.438418 -1.077505 -0.615466 9 9 9
2.988724 -1.320677 0.171243 1 1 1
2.602035 -1.149805 -0.552964 8 8 8
2.877560 -1.271556 0.275238 1 1 1
2.789750 -1.232754 -0.483070 9 9 9
2.870653 -1.268503 0.385351 6 6 6
3.024989 -1.336703 -0.406069 7 7 7
3.470926 -1.533756 0.601021 1 1 1
3.176433 -1.403624 -0.303825 1 1 1
4.451652 -1.967126 0.946031 82 82 82
3.602545 -1.591917 -0.206413 6 6 6
4.406264 -1.947070 1.112158 38 38 38
3.200884 -1.414428 -0.061083 1 1 1
4.334504 -1.915360 1.269766 96 96 96
2.270623 -1.003358 -0.665165 10 10 10
4.530623 -2.002022 0.086459 7 7 7
2.420593 -1.069628 -0.610967 9 9 9
2.933918 -1.296460 0.168103 1 1 1
2.587669 -1.143456 -0.549912 9 9 9
3.763244 -1.662928 0.359953 6 6 6
2.782523 -1.229560 -0.481818 9 9 9
3.015910 -1.332691 -0.404850 7 7 7
3.398653 -1.501820 0.588506 1 1 1
4.439082 -1.961571 0.943360 26 26 26
3.571489 -1.578193 -0.204634 6 6 6
4.404481 -1.946282 1.111708 36 36 36
4.334504 -1.915360 1.269766 94 94 94
2.258278 -1.016806 -0.663612 9 9 9
4.483715 -2.018825 0.085831 5 5 5
2.402405 -1.081700 -0.608268 9 9 9
2.875625 -1.294771 0.165277 2 2 2
2.576042 -1.159882 -0.549148 9 9 9
3.764260 -1.694885 0.361173 39 39 39
2.773871 -1.248956 -0.481818 9 9 9
4.067236 -1.831303 0.547681 13 13 13
2.983002 -1.343118 -0.401681 8 8 8
3.355664 -1.510912 0.582875 1 1 1
3.206525 -1.443761 -0.307660 1 1 1
4.405588 -1.983648 0.939162 15 15 15
3.549457 -1.598169 -0.204006 6 6 6
4.380125 -1.972183 1.109009 36 36 36
3.918464 -1.764317 -0.075010 4 4 4
4.328073 -1.948746 1.271837 39 39 39
2.251232 -1.013634 -0.661541 9 9 9
4.443601 -2.000763 0.085063 5 5 5
2.393521 -1.077700 -0.606018 9 9 9
2.870161 -1.292311 0.164963 3 3 3
2.559931 -1.152627 -0.545714 9 9 9
3.677057 -1.655622 0.352806 19 19 19
2.755859 -1.240845 -0.478689 9 9 9
4.031035 -1.815003 0.542806 15 15 15
2.968522 -1.336598 -0.399731 8 8 8
3.350260 -1.508479 0.581936 1 1 1
3.215608 -1.447851 -0.308531 2 2 2
4.378735 -1.971557 0.933438 12 12 12
3.529424 -1.589149 -0.202854 6 6 6
4.380125 -1.972183 1.109009 38 38 38
3.880173 -1.747076 -0.074277 4 4 4
2.221273 -1.018855 -0.654812 9 9 9
4.511317 -2.069253 0.086634 1 1 1
2.373539 -1.088696 -0.602869 9 9 9
2.884669 -1.323142 0.166324 2 2 2
2.535761 -1.163104 -0.542279 9 9 9
3.364788 -1.543362 0.323871 15 15 15
2.739947 -1.256760 -0.477438 9 9 9
4.000222 -1.834824 0.540369 15 15 15
2.950096 -1.353152 -0.398513 8 8 8
3.352216 -1.537596 0.584126 5 5 5
3.183690 -1.460297 -0.306440 6 6 6
4.322037 -1.982434 0.924279 7 7 7
3.414766 -1.566286 -0.196888 1 1 1
4.369792 -2.004339 1.109909 36 36 36
3.851523 -1.766619 -0.073963 6 6 6
2.214250 -1.015633 -0.652742 9 9 9
2.369997 -1.087071 -0.601969 9 9 9
2.957285 -1.356449 0.170511 1 1 1
2.535761 -1.163104 -0.542279 9 9 9
3.355733 -1.539209 0.322999 20 20 20
2.718401 -1.246878 -0.473684 10 10 10
3.958723 -1.815789 0.534763 12 12 12
2.937466 -1.347358 -0.396807 8 8 8
3.407877 -1.563127 0.593825 1 1 1
3.165581 -1.451990 -0.304696 5 5 5
4.179277 -1.916953 0.893749 5 5 5
3.244118 -1.488014 -0.187049 1 1 1
4.373335 -2.005963 1.110808 38 38 38
3.824259 -1.754113 -0.073440 4 4 4
1.346812 -0.617756 0.397028 0 0 0
1.325411 -1.288906 -0.495380 14 14 14
0.805685 -0.783494 0.019617 13 13 13
1.364940 -1.327346 -0.439554 13 13 13
0.829045 -0.806211 0.060605 94 94 94
0.792410 -0.770585 -0.214851 1 1 1
0.925581 -0.900088 0.112954 5 5 5
1.546456 -1.503863 -0.341653 10 10 10
0.996194 -0.968756 0.170617 23 23 23
1.602449 -1.558313 -0.274450 5 5 5
1.094698 -1.064548 0.241848 9 9 9
1.724037 -1.676552 -0.210394 12 12 12
1.555263 -1.512427 0.421688 3 3 3
0.690155 -0.671146 -0.050452 5 5 5
1.438985 -1.399351 0.463399 1 1 1
0.762677 -0.741671 -0.018569 1 1 1
3.481802 -3.385904 1.301342 82 82 82
1.283863 -1.248502 -0.479851 4 4 4
0.807118 -0.784888 0.019651 17 17 17
1.394278 -1.355876 -0.449002 15 15 15
0.824749 -0.802034 0.060291 100 100 100
1.453925 -1.413880 -0.394211 12 12 12
0.904155 -0.879252 0.110339 5 5 5
1.543624 -1.501108 -0.341027 9 9 9
0.996194 -0.968756 0.170617 23 23 23
0.819725 -0.797148 -0.140393 1 1 1
1.081953 -1.052153 0.239032 10 10 10
1.684042 -1.637660 -0.205513 3 3 3
1.404663 -1.365975 0.380855 2 2 2
0.720224 -0.700387 -0.052650 3 3 3
1.377513 -1.339573 0.443603 1 1 1
0.722536 -0.702635 -0.017592 1 1 1
3.491497 -3.395332 1.304966 105 105 105
1.305377 -1.287276 -0.491239 15 15 15
0.801619 -0.790504 0.019651 14 14 14
1.383391 -1.364209 -0.448552 15 15 15
0.816286 -0.804967 0.060082 54 54 54
1.442621 -1.422617 -0.393830 11 11 11
0.879553 -0.867357 0.108073 3 3 3
1.528887 -1.507687 -0.340089 10 10 10
0.992233 -0.978475 0.171105 23 23 23
1.556195 -1.534616 -0.268356 2 2 2
1.067548 -1.052746 0.237468 10 10 10
1.696685 -1.673159 -0.208477 4 4 4
1.221754 -1.204813 0.333534 8 8 8
0.772201 -0.761493 -0.056837 6 6 6
1.368128 -1.349157 0.443603 3 3 3
0.720461 -0.710471 -0.017662 3 3 3
3.463581 -3.415555 1.303413 120 120 120
1.313630 -1.295415 -0.494344 21 21 21
0.771719 -0.761018 0.018918 3 3 3
1.383391 -1.364209 -0.448552 15 15 15
0.817708 -0.806369 0.060186 100 100 100
1.438427 -1.418482 -0.392685 8 8 8
0.868203 -0.856165 0.106679 1 1 1
1.516228 -1.495204 -0.337273 10 10 10
0.983752 -0.970112 0.169642 24 24 24
1.575983 -1.554130 -0.271769 7 7 7
1.071768 -1.056907 0.238406 12 12 12
1.686755 -1.663366 -0.207256 6 6 6
1.196592 -1.180000 0.326665 11 11 11
0.721005 -0.711007 -0.053069 3 3 3
0.727580 -0.717491 -0.017836 4 4 4
3.470459 -3.422337 1.306001 122 122 122
1.302049 -1.301595 -0.493309 14 14 14
0.787734 -0.787460 0.019442 4 4 4
1.360291 -1.359816 -0.444053 8 8 8
0.805137 -0.804856 0.059663 37 37 37
1.438458 -1.437956 -0.395356 7 7 7
0.848265 -0.847969 0.104936 1 1 1
1.500427 -1.499904 -0.336021 8 8 8
0.951856 -0.951524 0.165255 23 23 23
1.575195 -1.574645 -0.273475 13 13 13
1.061755 -1.061384 0.237780 10 10 10
1.184367 -1.183954 0.325520 10 10 10
0.666710 -0.666478 -0.049405 6 6 6
1.358913 -1.358439 0.443603 76 76 76
0.731165 -0.730909 -0.018046 10 10 10
3.442985 -3.441783 1.304448 122 122 122
1.306148 -1.305692 -0.494862 9 9 9
0.779249 -0.778977 0.019233 11 11 11
1.357535 -1.357061 -0.443154 11 11 11
0.781125 -0.780852 0.057884 31 31 31
1.428738 -1.428240 -0.392685 8 8 8
0.855310 -0.855012 0.105807 3 3 3
0.894295 -0.893983 0.155262 50 50 50
1.578003 -1.577452 -0.273962 3 3 3
1.058961 -1.058591 0.237155 6 6 6
0.824311 -0.824023 -0.101972 1 1 1
1.178813 -1.178402 0.323994 10 10 10
0.651173 -0.650945 -0.048254 8 8 8
1.345131 -1.344661 0.439104 16 16 16
0.729750 -0.729496 -0.018011 15 15 15
3.456647 -3.455441 1.309624 119 119 119
1.280721 -1.298276 -0.488650 12 12 12
0.775196 -0.785822 0.019267 14 14 14
1.342553 -1.360956 -0.441354 11 11 11
0.802304 -0.813301 0.059872 27 27 27
0.770721 -0.781285 -0.213324 9 9 9
0.856316 -0.868054 0.106679 5 5 5
0.819872 -0.831110 -0.184906 1 1 1
0.885244 -0.897378 0.154774 51 51 51
0.855968 -0.867701 -0.149656 1 1 1
1.027961 -1.042052 0.231836 5 5 5
0.692609 -0.702103 -0.086284 1 1 1
1.173315 -1.189398 0.324757 10 10 10
0.652223 -0.661163 -0.048672 15 15 15
1.342553 -1.360956 0.441354 6 6 6
0.709192 -0.718913 -0.017627 12 12 12
3.432440 -3.479489 1.309624 120 120 120
1.284791 -1.302401 -0.490203 21 21 21
0.766770 -0.777280 0.019058 6 6 6
1.341185 -1.359569 -0.440904 8 8 8
0.817733 -0.828942 0.061024 30 30 30
1.413218 -1.432589 -0.391158 9 9 9
0.852119 -0.863799 0.106156 7 7 7
0.882299 -0.894393 -0.198985 1 1 1
0.939613 -0.952493 0.164280 28 28 28
0.879668 -0.891725 -0.153799 1 1 1
1.012701 -1.026583 0.228394 6 6 6
0.633842 -0.642530 -0.078963 4 4 4
1.166422 -1.182410 0.322849 9 9 9
0.663444 -0.672538 -0.049510 19 19 19
3.472027 -3.519618 1.141402 4 4 4
0.717618 -0.727455 -0.017836 18 18 18
3.432440 -3.479489 1.309624 120 120 120
1.262196 -1.297492 -0.485027 23 23 23
1.327584 -1.364708 -0.439554 2 2 2
0.818889 -0.841789 0.061547 29 29 29
1.397706 -1.436791 -0.389632 11 11 11
0.847457 -0.871155 0.106330 7 7 7
0.925620 -0.951504 -0.210248 12 12 12
0.906641 -0.931994 0.159649 29 29 29
0.881726 -0.906382 -0.155262 1 1 1
0.998623 -1.026548 0.226830 12 12 12
0.619616 -0.636943 -0.077743 9 9 9
1.121177 -1.152529 0.312545 9 9 9
0.672659 -0.691469 -0.050557 31 31 31
3.443294 -3.539581 1.140052 4 4 4
0.706945 -0.726713 -0.017697 21 21 21
3.408065 -3.503367 1.309624 120 120 120
1.268932 -1.304416 -0.487615 25 25 25
0.747381 -0.768281 0.018709 3 3 3
0.747361 -0.768259 -0.247446 0 0 0
0.809141 -0.831767 0.060814 23 23 23
1.394968 -1.433977 -0.388869 12 12 12
0.847457 -0.871155 0.106330 11 11 11
1.472452 -1.513627 -0.334457 15 15 15
0.895568 -0.920611 0.157699 13 13 13
1.546135 -1.589371 -0.272256 9 9 9
0.994491 -1.022300 0.225891 13 13 13
0.622395 -0.639799 -0.078092 8 8 8
1.106118 -1.137049 0.308347 7 7 7
0.661518 -0.680016 -0.049719 50 50 50
3.462318 -3.559136 1.146351 2 2 2
0.705550 -0.725280 -0.017662 22 22 22
3.418841 -3.514444 1.313765 120 120 120
1.253108 -1.306272 -0.485027 23 23 23
0.736462 -0.767707 0.018569 3 3 3
0.728488 -0.759395 -0.242947 0 0 0
0.797784 -0.831631 0.060396 13 13 13
1.380846 -1.439430 -0.387724 8 8 8
0.831700 -0.866985 0.105110 13 13 13
1.456379 -1.518168 -0.333205 12 12 12
0.871254 -0.908218 0.154530 8 8 8
1.532253 -1.597261 -0.271769 12 12 12
0.984594 -1.026367 0.225266 22 22 22
0.615154 -0.641253 -0.077743 9 9 9
1.099512 -1.146160 0.308729 7 7 7
0.655372 -0.683177 -0.049614 57 57 57
1.268109 -1.321910 0.422908 3 3 3
0.704623 -0.734517 -0.017767 21 21 21
3.399572 -3.543803 1.315836 120 120 120
1.258457 -1.311848 -0.487097 24 24 24
0.730925 -0.761935 0.018430 1 1 1
0.701507 -0.731270 -0.233949 0 0 0
0.778427 -0.811452 0.058930 3 3 3
1.379487 -1.438013 -0.387342 11 11 11
0.827562 -0.862672 0.104587 16 16 16
1.459114 -1.521019 -0.333831 6 6 6
0.871254 -0.908218 0.154530 8 8 8
1.526756 -1.591531 -0.270794 15 15 15
0.969552 -1.010686 0.221824 21 21 21
0.612396 -0.638377 -0.077394 9 9 9
1.103590 -1.150411 0.309874 7 7 7
0.659520 -0.687501 -0.049929 54 54 54
1.247874 -1.300816 0.416159 6 6 6
0.686626 -0.715757 -0.017313 22 22 22
3.404922 -3.549379 1.317907 119 119 119
1.235992 -1.306568 -0.481921 24 24 24
0.725588 -0.767019 0.018430 3 3 3
0.724508 -0.765878 -0.243397 0 0 0
0.756272 -0.799456 0.057674 3 3 3
0.817412 -0.864086 0.104064 24 24 24
0.876950 -0.927024 -0.202113 13 13 13
0.862164 -0.911394 0.154043 8 8 8
1.515608 -1.602151 -0.270794 16 16 16
0.947540 -1.001645 0.218383 18 18 18
0.596971 -0.631058 -0.076000 10 10 10
1.094182 -1.156661 0.309492 9 9 9
0.649214 -0.686284 -0.049510 58 58 58
1.241440 -1.312327 0.417059 8 8 8
0.681613 -0.720533 -0.017313 22 22 22
3.374749 -3.567450 1.315836 120 120 120
1.238647 -1.309375 -0.482956 24 24 24
0.731204 -0.772957 -0.245647 0 0 0
0.756272 -0.799456 0.057674 3 3 3
1.358621 -1.436199 -0.384289 11 11 11
0.809196 -0.855402 0.103018 16 16 16
0.856707 -0.905626 0.153068 8 8 8
1.514244 -1.600708 -0.270550 14 14 14
0.943467 -0.997340 0.217444 37 37 37
0.609293 -0.644084 -0.077569 13 13 13
1.094182 -1.156661 0.309492 10 10 10
0.650586 -0.687735 -0.049614 51 51 51
1.238762 -1.309496 0.416159 9 9 9
0.681613 -0.720533 -0.017313 22 22 22
3.380060 -3.573064 1.317907 119 119 119
1.228158 -1.316578 -0.482439 20 20 20
0.707939 -0.758906 0.018116 1 1 1
0.716485 -0.768068 -0.242497 0 0 0
0.745223 -0.798874 0.057256 3 3 3
1.361953 -1.460005 -0.388105 13 13 13
0.826309 -0.885798 0.105981 18 18 18
1.414829 -1.516687 -0.328512 14 14 14
0.849010 -0.910133 0.152824 8 8 8
0.910880 -0.976458 0.211499 33 33 33
0.608859 -0.652693 -0.078092 26 26 26
1.082063 -1.159965 0.308347 10 10 10
0.633508 -0.679116 -0.048672 60 60 60
1.222943 -1.310987 0.413910 10 10 10
0.682022 -0.731123 -0.017452 19 19 19
3.362939 -3.605049 1.321012 117 117 117
1.232111 -1.320815 -0.483992 21 21 21
0.713395 -0.764755 0.018255 1 1 1
0.701863 -0.752393 -0.237548 2 2 2
0.737049 -0.790112 0.056628 3 3 3
1.355257 -1.452827 -0.386197 16 16 16
0.831745 -0.891625 0.106679 22 22 22
0.838177 -0.898521 0.150874 8 8 8
0.540279 -0.579176 -0.097252 7 7 7
0.901448 -0.966346 0.209309 38 38 38
0.602064 -0.645409 -0.077220 46 46 46
1.078045 -1.155658 0.307202 11 11 11
0.626696 -0.671814 -0.048149 56 56 56
1.212309 -1.299588 0.410311 10 10 10
0.668382 -0.716501 -0.017103 20 20 20
3.368210 -3.610700 1.323083 116 116 116
1.217629 -1.323698 -0.481921 24 24 24
0.670207 -0.728590 -0.228550 0 0 0
0.728811 -0.792298 0.056418 3 3 3
1.326474 -1.442024 -0.380855 7 7 7
0.825500 -0.897410 0.106679 35 35 35
0.501502 -0.545188 -0.117326 5 5 5
0.831884 -0.904350 0.150874 8 8 8
0.529503 -0.575629 -0.096033 7 7 7
0.887993 -0.965347 0.207745 51 51 51
0.596195 -0.648130 -0.077046 52 52 52
1.073939 -1.167490 0.308347 12 12 12
0.634160 -0.689402 -0.049091 56 56 56
1.196610 -1.300848 0.408061 10 10 10
0.660656 -0.718206 -0.017034 23 23 23
3.345537 -3.636970 1.324118 117 117 117
1.209782 -1.315167 -0.478815 24 24 24
0.725638 -0.788849 0.018709 9 9 9
0.614796 -0.668352 -0.209654 1 1 1
0.739628 -0.804058 0.057256 7 7 7
1.326474 -1.442024 -0.380855 11 11 11
0.806616 -0.876881 0.104238 24 24 24
0.505514 -0.549550 -0.118264 5 5 5
0.830540 -0.902889 0.150631 8 8 8
0.549662 -0.597543 -0.099689 13 13 13
0.849210 -0.923186 0.198672 25 25 25
0.592148 -0.643731 -0.076523 58 58 58
1.056660 -1.148707 0.303386 15 15 15
0.632808 -0.687932 -0.048986 49 49 49
1.197930 -1.302282 0.408511 10 10 10
0.655240 -0.712319 -0.016894 23 23 23
3.345537 -3.636970 1.324118 116 116 116
1.197975 -1.320719 -0.477780 24 24 24
0.743389 -0.819557 0.057988 10 10 10
1.301865 -1.435254 -0.376657 9 9 9
0.807168 -0.889870 0.105110 22 22 22
0.513610 -0.566234 -0.121080 4 4 4
0.820216 -0.904255 0.149899 8 8 8
0.541476 -0.596955 -0.098958 14 14 14
0.826819 -0.911534 0.194917 37 37 37
0.579608 -0.638994 -0.075477 63 63 63
1.035425 -1.141514 0.299570 14 14 14
0.629332 -0.693813 -0.049091 63 63 63
1.186190 -1.307727 0.407611 10 10 10
0.656969 -0.724282 -0.017068 22 22 22
3.317469 -3.657375 1.323083 80 80 80
1.197975 -1.320719 -0.477780 24 24 24
0.714739 -0.787971 0.018569 13 13 13
1.255581 -1.384227 -0.431456 5 5 5
0.764859 -0.843226 0.059663 20 20 20
0.832297 -0.917573 -0.240801 10 10 10
0.809845 -0.892821 0.105458 22 22 22
0.499011 -0.550139 -0.117639 5 5 5
0.800210 -0.882200 0.146243 10 10 10
0.557480 -0.614599 -0.101883 19 19 19
0.828146 -0.912997 0.195230 44 44 44
0.587640 -0.647849 -0.076523 58 58 58
1.030149 -1.135697 0.298044 12 12 12
0.617255 -0.680498 -0.048149 73 73 73
1.179644 -1.300510 0.405362 11 11 11
0.658313 -0.725763 -0.017103 24 24 24
3.322661 -3.663099 1.325154 30 30 30
1.188725 -1.329050 -0.477780 22 22 22
0.707888 -0.791451 0.018534 14 14 14
1.248485 -1.395864 -0.432356 10 10 10
0.742976 -0.830681 0.058407 28 28 28
0.806249 -0.901423 0.105807 22 22 22
0.512278 -0.572750 -0.121706 4 4 4
0.786092 -0.878887 0.144781 11 11 11
0.541265 -0.605160 -0.099689 27 27 27
0.821752 -0.918756 0.195230 41 41 41
0.583102 -0.651935 -0.076523 58 58 58
1.024812 -1.145788 0.298807 13 13 13
0.615152 -0.687768 -0.048358 78 78 78
1.158844 -1.295641 0.401313 10 10 10
0.654563 -0.731832 -0.017138 25 25 25
3.302158 -3.691966 1.327224 22 22 22
1.191301 -1.331930 -0.478815 24 24 24
0.698556 -0.781018 0.018290 14 14 14
1.245887 -1.392959 -0.431456 12 12 12
0.742976 -0.830681 0.058407 31 31 31
0.501281 -0.560456 -0.146160 4 4 4
0.803592 -0.898453 0.105458 22 22 22
0.512278 -0.572750 -0.121706 9 9 9
0.783445 -0.875928 0.144293 11 11 11
0.542589 -0.606639 -0.099933 48 48 48
0.834921 -0.933480 0.198359 40 40 40
0.583102 -0.651935 -0.076523 58 58 58
1.020886 -1.141398 0.297662 18 18 18
0.619147 -0.692234 -0.048672 67 67 67
1.151049 -1.286926 0.398613 10 10 10
0.639899 -0.715436 -0.016754 34 34 34
3.253218 -3.637249 1.307554 7 7 7
1.171751 -1.328623 -0.474674 27 27 27
0.694409 -0.787375 0.018325 9 9 9
1.221953 -1.385546 -0.426507 5 5 5
0.731874 -0.829856 0.057988 31 31 31
0.484370 -0.549217 -0.142344 5 5 5
0.785440 -0.890593 0.103890 18 18 18
0.513493 -0.582239 -0.122957 9 9 9
0.787815 -0.893286 0.146243 13 13 13
0.531775 -0.602968 -0.098714 57 57 57
0.833610 -0.945212 0.199610 37 37 37
0.573265 -0.650013 -0.075825 61 61 61
1.015490 -1.151442 0.298425 33 33 33
0.609014 -0.690548 -0.048254 72 72 72
1.136880 -1.289084 0.396814 10 10 10
0.637534 -0.722886 -0.016824 33 33 33
1.171751 -1.328623 -0.474674 29 29 29
0.693086 -0.785876 0.018290 11 11 11
1.223242 -1.387008 -0.426957 9 9 9
0.739801 -0.838844 0.058616 31 31 31
0.488266 -0.553635 -0.143488 5 5 5
0.777532 -0.881627 0.102844 15 15 15
0.504347 -0.571868 -0.120767 14 14 14
0.777311 -0.881376 0.144293 12 12 12
0.544905 -0.617856 -0.101152 65 65 65
0.857129 -0.971880 0.205242 37 37 37
0.558769 -0.633576 -0.073908 51 51 51
0.997310 -1.130828 0.293083 38 38 38
0.614299 -0.696540 -0.048672 67 67 67
1.134302 -1.286161 0.395914 10 10 10
0.638856 -0.724385 -0.016859 28 28 28
3.218802 -3.649730 1.303930 100 100 100
0.173328 -0.565165 -0.158397 100 100 100
0.241565 -0.787665 0.014381 28 28 28
0.179414 -0.585011 -0.141269 52 52 52
0.258253 -0.842080 0.046160 61 61 61
0.189961 -0.619399 -0.125934 33 33 33
0.268139 -0.874313 0.080009 56 56 56
0.184762 -0.602450 -0.099805 49 49 49
0.284618 -0.928047 0.119188 30 30 30
0.206625 -0.673735 -0.086527 90 90 90
0.296547 -0.966941 0.160189 1 1 1
0.206800 -0.674307 -0.061706 88 88 88
0.219018 -0.714145 -0.039147 100 100 100
0.279977 -0.912915 0.220452 1 1 1
0.230425 -0.751340 -0.013718 94 94 94
0.270754 -0.882840 0.247431 75 75 75
0.177859 -0.579941 -0.162538 100 100 100
0.239806 -0.781929 0.014276 21 21 21
0.178843 -0.583148 -0.140819 52 52 52
0.252983 -0.824895 0.045218 66 66 66
0.188809 -0.615645 -0.125171 47 47 47
0.269307 -0.878123 0.080358 53 53 53
0.187079 -0.610004 -0.101057 49 49 49
0.281126 -0.916660 0.117726 35 35 35
0.201968 -0.658553 -0.084577 94 94 94
0.279171 -0.910285 0.150803 2 2 2
0.209721 -0.683831 -0.062578 86 86 86
0.217846 -0.710326 -0.038938 100 100 100
0.282263 -0.920367 0.222252 1 1 1
0.229252 -0.747517 -0.013648 96 96 96
0.270754 -0.882840 0.247431 73 73 73
0.170485 -0.570063 -0.159433 100 100 100
0.238925 -0.798911 0.014555 27 27 27
0.176442 -0.589983 -0.142169 60 60 60
0.247218 -0.826641 0.045218 66 66 66
0.183382 -0.613187 -0.124407 61 61 61
0.265454 -0.887617 0.081055 50 50 50
0.183948 -0.615080 -0.101682 41 41 41
0.277564 -0.928109 0.118944 27 27 27
0.193953 -0.648535 -0.083115 97 97 97
0.275073 -0.919782 0.152054 2 2 2
0.203229 -0.679552 -0.062055 87 87 87
0.275073 -0.919780 0.186611 1 1 1
0.215171 -0.719483 -0.039357 100 100 100
0.260197 -0.870038 0.209654 2 2 2
0.221736 -0.741435 -0.013508 90 90 90
0.263477 -0.881007 0.246396 75 75 75
0.168271 -0.562660 -0.157362 10 10 10
0.240644 -0.804659 0.014660 39 39 39
0.178117 -0.595584 -0.143519 62 62 62
0.247790 -0.828554 0.045323 65 65 65
0.180007 -0.601901 -0.122118 63 63 63
0.262029 -0.876164 0.080009 56 56 56
0.181684 -0.607510 -0.100431 35 35 35
0.278701 -0.931913 0.119432 28 28 28
0.198503 -0.663750 -0.085065 93 93 93
0.272809 -0.912211 0.150803 2 2 2
0.202087 -0.675734 -0.061706 88 88 88
0.280135 -0.936709 0.190046 3 3 3
0.216316 -0.723310 -0.039566 100 100 100
0.280298 -0.937252 0.225851 1 1 1
0.221736 -0.741435 -0.013508 99 99 99
0.256281 -0.856946 0.239666 100 100 100
0.165519 -0.567501 -0.158397 100 100 100
0.230682 -0.790920 0.014381 42 42 42
0.175151 -0.600524 -0.144419 50 50 50
0.244382 -0.837891 0.045742 63 63 63
0.177555 -0.608767 -0.123263 56 56 56
0.253827 -0.870277 0.079312 59 59 59
0.180863 -0.620111 -0.102308 27 27 27
0.272351 -0.933788 0.119432 28 28 28
0.195092 -0.668897 -0.085552 92 92 92
0.266040 -0.912151 0.150490 2 2 2
0.199157 -0.682832 -0.062229 86 86 86
0.266607 -0.914092 0.185085 10 10 10
0.212506 -0.728601 -0.039775 100 100 100
0.261907 -0.897980 0.215953 2 2 2
0.217804 -0.746767 -0.013578 97 97 97
0.251524 -0.862379 0.240702 100 100 100
0.166060 -0.569356 -0.158915 100 100 100
0.234041 -0.802439 0.014590 47 47 47
0.171331 -0.587429 -0.141269 56 56 56
0.244382 -0.837891 0.045742 73 73 73
0.174806 -0.599343 -0.121355 28 28 28
0.255501 -0.876015 0.079835 56 56 56
0.169801 -0.582184 -0.096051 15 15 15
0.269016 -0.922354 0.117970 30 30 30
0.194537 -0.666992 -0.085309 72 72 72
0.283740 -0.972835 0.160502 1 1 1
0.196925 -0.675182 -0.061532 88 88 88
0.209150 -0.717097 -0.039147 100 100 100
0.264090 -0.905464 0.217753 1 1 1
0.220044 -0.754446 -0.013718 86 86 86
0.250442 -0.858670 0.239666 100 100 100
0.165777 -0.583510 -0.162538 100 100 100
0.236085 -0.830983 0.015079 47 47 47
0.167226 -0.588611 -0.141269 56 56 56
0.235797 -0.829971 0.045218 76 76 76
0.169545 -0.596772 -0.120591 29 29 29
0.249923 -0.879694 0.080009 61 61 61
0.165193 -0.581455 -0.095738 7 7 7
0.262571 -0.924210 0.117970 32 32 32
